ncols         335
nrows         32
xllcorner     584732.170748
yllcorner     3507824.36375
cellsize      30
NODATA_value  -9999
1406.241 1412.728 1418.498 1417.321 1412.404 1403.762 1396.072 1389.694 1379.359 1371.356 1366.247 1362.36 1357.528 1352.021 1349.366 1346.209 1342.859 1340.206 1336.318 1334.395 1334.042 1335.844 1339.811 1342.43 1342.578 1341.558 1340.869 1341.125 1341.681 1343.035 1344.46 1347.157 1349.439 1350.05 1349.829 1348.89 1347.905 1346.268 1343.277 1342.679 1341.351 1341.056 1341.919 1342.216 1344.237 1348.071 1352.202 1348.845 1344.004 1340.336 1338.769 1337.349 1336.953 1335.982 1335 1334.417 1335.453 1338.934 1341.644 1342.896 1344.767 1345.649 1346.385 1346.489 1345.181 1342.456 1341.605 1342.419 1342.46 1341.722 1341.236 1341.514 1342.217 1342.02 1341.766 1341.627 1341.993 1342.981 1344.422 1345.776 1346.893 1347.834 1348.567 1349.284 1349.535 1349.555 1349.573 1349.257 1348.925 1349.35 1349.794 1350.118 1351.16 1352.943 1355.079 1356.156 1356.642 1356.929 1358.284 1360.842 1363.795 1366.031 1366.625 1366.363 1364.661 1364.863 1366.37 1368.987 1371.795 1372.727 1372.93 1373.099 1373.792 1374.623 1374.671 1375.763 1377.275 1377.993 1378.085 1378.377 1378.813 1379.704 1380.416 1381.27 1381.448 1381.997 1381.35 1380.815 1380.556 1380.542 1382.012 1384.081 1385.832 1385.579 1385.742 1386.644 1388.345 1390.513 1392.699 1394.725 1395.672 1396.047 1396.495 1396.828 1396.12 1394.922 1395.7 1395.229 1394.754 1393.99 1392.827 1389.956 1389.669 1394.845 1395.522 1395.51 1393.7 1389.69 1386.376 1386.516 1387.592 1387.735 1387.164 1387.538 1389.054 1389.89 1389.93 1389.721 1388.142 1387.072 1382.898 1377.395 1378.75 1381.415 1381.565 1386.676 1389.331 1389.739 1389.048 1387.643 1386.158 1385.429 1384.437 1382.404 1380.588 1379.439 1378.694 1377.23 1375.502 1373.163 1370.19 1366.908 1364.593 1364.176 1365.72 1370.824 1380.971 1391.417 1395.841 1396.019 1393.051 1386.754 1380.565 1379.754 1382.464 1387.215 1392.908 1396.403 1397.01 1396.911 1395.496 1390.641 1386.273 1383.414 1381.542 1378.679 1373.562 1363.654 1358.366 1357.334 1357.173 1357.773 1360.247 1362.616 1364.642 1366.16 1369.134 1371.368 1373.835 1377.898 1380.901 1381.943 1382.637 1382.54 1382.104 1382.391 1382.932 1383.478 1384.347 1383.532 1382.838 1383.959 1386.028 1387.908 1389.878 1392.232 1395.323 1396.49 1396.822 1396.952 1396.93 1396.982 1397.033 1396.846 1395.085 1394.812 1395.367 1395.824 1395.939 1395.881 1395.099 1394.176 1394.106 1394.168 1394.56 1394.879 1395.615 1395.913 1396.885 1397.663 1397.925 1398.372 1398.734 1398.768 1397.895 1398.411 1398.858 1397.841 1397.096 1398.695 1401.147 1400.132 1396.99 1391.216 1389.443 1389.937 1393.917 1399.163 1402.298 1399.097 1395.821 1394.146 1393.711 1394.295 1395.724 1397.853 1400.933 1404.209 1407.597 1409.122 1409.707 1410.542 1411.274 1412.43 1413.46 1413.45 1412.068 1409.046 1406.172 1406.41 1409.594 1413.607 1413.466 1410.249 1409.051 1410.522 1413.301 1416.347 1419.693 1424.219 1428.48 1433.74 1440.85 1449.274 1456.471 1463.657 1470.483 1477.94 1483.858 1487.626 1490.969 1493.347 1493.007 1492.728 1492.781
1403.913 1408.84 1417.034 1417.246 1408.927 1400.766 1394.456 1388.929 1382.96 1376.082 1368.362 1363.779 1358.64 1352.721 1348.647 1344.538 1342.063 1336.367 1334.45 1333.981 1333.932 1334.714 1337.276 1340.543 1342.663 1343.313 1342.573 1342.086 1342.505 1345.324 1348.12 1352.741 1356.149 1356.975 1356.892 1355.043 1351.147 1348.261 1346.004 1343.896 1342.199 1341.735 1341.967 1342.672 1345.356 1351.451 1356.983 1352.936 1346.757 1342.201 1340.739 1340.029 1340.404 1338.759 1336.822 1335.195 1334.703 1336.542 1339.609 1342.219 1344.549 1346.839 1348.156 1348.647 1347.458 1343.997 1343.298 1344.789 1344.25 1343.019 1342.004 1341.882 1342.562 1342.819 1342.771 1342.38 1342.59 1343.146 1344.399 1345.929 1347.213 1348.428 1349.331 1349.888 1350.045 1350.111 1350.268 1349.771 1349.198 1349.673 1350.813 1351.731 1353.109 1354.414 1356.025 1356.634 1356.689 1357 1357.543 1358.51 1360.739 1363.698 1365.006 1363.943 1362.079 1363.39 1365.353 1367.358 1369.314 1369.748 1369.522 1369.408 1370.76 1372.104 1372.235 1372.974 1374.357 1374.853 1374.709 1374.747 1374.899 1375.563 1376.578 1377.652 1379.078 1379.497 1379.413 1379.66 1379.854 1379.863 1380.226 1381.323 1381.775 1381.715 1382.264 1383.651 1386.596 1389.489 1392.358 1395.283 1395.798 1396.318 1396.343 1396.542 1396.133 1395.016 1394.985 1395.093 1395.51 1395.515 1395.317 1393.404 1394.11 1395.577 1396.484 1395.684 1392.933 1388.812 1387.493 1387.8 1388.661 1387.995 1387.844 1388.554 1390.069 1390.863 1390.81 1389.178 1387.262 1385.209 1381.675 1379.122 1380.761 1383.347 1385.08 1387.287 1389.358 1389.788 1389.214 1388.61 1387.81 1386.88 1385.195 1382.538 1380.397 1379.043 1377.653 1376.071 1374.878 1373.002 1369.706 1366.593 1364.734 1365.165 1368.986 1375.098 1383.654 1392.481 1396.555 1396.766 1394.615 1388.739 1382.227 1382.481 1386.702 1390.371 1394.276 1397.046 1397.502 1397.187 1395.918 1391.95 1388.817 1387.175 1386.222 1382.873 1376.137 1366.389 1360.977 1359.142 1358.232 1358.032 1359.049 1360.674 1362.014 1362.11 1363.872 1364.911 1366.162 1371.378 1377.309 1380.552 1381.554 1380.67 1379.57 1379.447 1380.27 1380.965 1380.956 1381.218 1380.934 1383.369 1386.602 1389.077 1391.135 1393.781 1395.665 1396.589 1396.609 1396.577 1396.683 1396.799 1396.841 1396.104 1394.238 1393.871 1394.454 1395.404 1395.811 1395.187 1394.095 1393.855 1393.873 1393.969 1394.488 1394.862 1394.92 1394.948 1395.93 1397.5 1398.473 1399.297 1399.766 1400.509 1400.73 1401.413 1402.085 1401.891 1401.511 1402.174 1403.271 1400.427 1395.77 1392.627 1392.161 1391.91 1393.438 1397.848 1402.633 1402.714 1402.215 1400.19 1396.244 1394.559 1395.202 1395.858 1396.72 1398.387 1401.208 1403.492 1405.111 1406.723 1408.166 1410.125 1412.195 1413.292 1413.569 1412.708 1410.384 1408.669 1409.455 1414.989 1416.77 1413.966 1410.949 1410.284 1411.226 1413.402 1416.807 1423.781 1429.529 1435.35 1442.91 1451.327 1458.294 1465.112 1472.209 1479.395 1484.186 1487.018 1489.21 1490.445 1489.935 1489.498 1489.675
1399.106 1404.022 1411.922 1411.391 1402.411 1394.457 1389.163 1385.411 1381.87 1375.535 1366.545 1362.411 1358.235 1353.392 1349.34 1345.05 1341.553 1335.77 1334.86 1334.132 1334.078 1334.36 1335.647 1339.911 1342.586 1343.695 1343.53 1342.679 1343.718 1348.471 1354.105 1361.86 1367.808 1369.695 1366.568 1361.001 1355.309 1349.983 1347.079 1345.724 1343.962 1343.372 1343.148 1344.159 1347.209 1353.451 1357.318 1353.747 1348.512 1345.008 1343.333 1342.034 1342.384 1340.216 1338.029 1336.055 1334.761 1335.542 1338.823 1341.876 1344.185 1347.013 1349.069 1349.698 1348.854 1346.993 1346.973 1348.198 1346.524 1344.17 1342.541 1342.13 1342.828 1343.584 1343.776 1343.573 1343.732 1343.942 1344.794 1346.363 1347.79 1349.189 1349.931 1350.538 1350.851 1350.914 1350.753 1350.046 1349.763 1350.143 1351.726 1353.355 1355.416 1356.841 1357.682 1357.762 1357.697 1357.697 1357.437 1357.225 1358.232 1360.34 1361.176 1360.216 1359.335 1361.524 1363.846 1365.175 1365.844 1365.662 1365.521 1365.542 1366.818 1368.375 1369.511 1370.973 1372.176 1372.459 1372.443 1372.403 1372.466 1372.804 1373.341 1375.441 1377.889 1378.871 1379.166 1379.683 1380.078 1380.022 1379.958 1380.257 1380.602 1380.798 1381.036 1381.429 1382.628 1386.854 1389.962 1393.596 1395.082 1395.682 1396.225 1396.715 1396.735 1395.884 1395.739 1395.799 1395.818 1395.83 1395.792 1395.618 1395.71 1396.606 1396.735 1395.811 1393.379 1390.089 1388.125 1388.607 1390.484 1389.005 1388.912 1390.586 1392.67 1392.977 1391.308 1388.424 1385.628 1381.983 1380.197 1379.922 1381.264 1384.206 1387.08 1388.554 1389.963 1390.101 1389.741 1389.516 1388.708 1387.243 1385.253 1382.522 1380.451 1378.94 1377.177 1375.292 1373.717 1371.814 1368.688 1366.002 1365.005 1366.938 1374.017 1380.84 1387.547 1393.551 1396.887 1397.436 1395.672 1390.755 1385.527 1385.166 1389.598 1393.382 1396.124 1397.815 1397.943 1397.621 1396.324 1393.603 1391.222 1389.522 1388.059 1384.205 1378.183 1370.411 1364.357 1361.479 1360.191 1359.836 1360.179 1361.046 1362.082 1362.357 1362.579 1363.192 1363.021 1364.915 1370.726 1376.217 1377.742 1376.328 1374.927 1374.504 1375.289 1376.579 1378.761 1380.241 1381.653 1384.458 1387.518 1389.916 1392.003 1394.313 1395.631 1395.885 1395.216 1394.838 1395.056 1395.714 1396.022 1395.098 1393.12 1392.077 1392.592 1394.067 1394.897 1394.242 1393.127 1393.758 1393.938 1394.096 1394.555 1394.855 1394.855 1395.627 1395.852 1397.531 1399.133 1400.271 1400.732 1400.836 1401.64 1402.615 1403.509 1404.07 1403.834 1403.112 1402.01 1397.18 1395.294 1396.006 1395.612 1395.208 1394.803 1396.421 1401.422 1403.672 1404.365 1402.836 1397.886 1396.337 1397.247 1396.201 1396.176 1396.624 1397.682 1398.336 1399.346 1402.161 1404.075 1406.285 1408.975 1411.363 1413.596 1415.723 1415.283 1412.373 1409.919 1414.347 1417.56 1416.661 1413.25 1412.013 1411.998 1412.346 1414.111 1421.986 1429.038 1435.822 1444.005 1452.784 1460.048 1466.771 1473.923 1479.802 1483.216 1485.087 1485.774 1485.548 1484.928 1484.233 1484.266
1395.081 1401.65 1406.692 1406.094 1397.228 1388.432 1381.926 1379.113 1377.332 1372.052 1364.869 1360.505 1356.521 1352.147 1348.379 1344.922 1341.524 1339.195 1335.651 1334.263 1334.958 1337.139 1340.45 1341.054 1341.956 1344.276 1344.526 1343.814 1345.962 1352.179 1359.589 1368.872 1377.727 1378.096 1372.772 1365.025 1357.259 1351.039 1349.653 1348.533 1347.287 1346.382 1345.821 1346.355 1348.365 1352.202 1357.232 1354.986 1351.085 1348.965 1346.821 1343.033 1341.975 1340.978 1338.481 1336.497 1335.348 1335.389 1337.528 1340.296 1342.662 1346.113 1349.044 1350.242 1349.966 1349.161 1349.455 1349.099 1347.272 1344.848 1343.285 1342.923 1343.62 1344.524 1344.929 1344.952 1345.227 1345.182 1345.613 1346.705 1347.701 1349.343 1350.413 1351.442 1352.186 1352.254 1351.336 1350.372 1350.69 1351.457 1353.225 1354.707 1355.927 1356.742 1357.743 1358.228 1358.47 1358.741 1358.287 1357.612 1357.69 1358.17 1358.445 1358.278 1358.536 1360.716 1362.796 1363.686 1363.73 1363.449 1363.735 1364.123 1364.835 1365.731 1367.272 1369.589 1371.069 1371.846 1372.105 1372.199 1372.334 1373 1373.663 1375.773 1378.7 1379.712 1380.48 1381.091 1381.965 1381.896 1381.519 1383.219 1384.943 1383.874 1382.887 1381.851 1381.416 1382.297 1386.016 1390.144 1392.42 1393.576 1394.662 1395.689 1396.598 1396.71 1395.969 1396.553 1396.182 1395.899 1395.875 1396.447 1396.733 1396.821 1397.448 1396.202 1394.473 1391.414 1388.512 1391.564 1393.443 1392.429 1392.308 1394.068 1395.338 1394.334 1391.479 1389.121 1387.458 1381.766 1379.86 1380.011 1380.889 1384.113 1387.239 1389.356 1389.945 1390.368 1390.078 1389.218 1388.131 1387.041 1385.13 1382.516 1380.666 1378.655 1376.445 1374.834 1373.335 1371.321 1368.015 1365.654 1365.707 1370.729 1379.32 1385.29 1390.822 1394.891 1397.286 1397.93 1396.64 1393.604 1391.405 1390.777 1392.861 1395.729 1397.754 1398.417 1398.021 1397.723 1396.23 1393.998 1391.583 1389.419 1387.069 1383.287 1378.197 1372.724 1365.993 1362.884 1362.264 1362.354 1362.767 1362.561 1362.507 1362.414 1362.826 1363.798 1363.706 1362.816 1364.506 1369.04 1370.866 1372.052 1372.664 1372.981 1375.441 1378.363 1379.837 1381.468 1383.692 1386.319 1388.34 1389.791 1391.569 1393.567 1394.797 1394.643 1393.144 1392.011 1392.46 1393.383 1393.548 1393.23 1391.272 1389.396 1390.214 1391.768 1392.375 1392.286 1392.759 1393.762 1394.436 1394.771 1395.36 1395.746 1395.73 1396.588 1396.681 1397.716 1399.368 1400.958 1401.698 1401.768 1402.608 1403.614 1404.42 1404.127 1403.385 1402.684 1398.11 1396.722 1399.117 1401.136 1399.954 1399.455 1398.482 1396.385 1399.787 1404.151 1404.828 1403.827 1401.883 1402.465 1402.508 1398.01 1398.443 1399.688 1398.015 1398.818 1402.023 1404.271 1403.573 1403.082 1404.862 1408.356 1412.107 1415.952 1417.345 1416.448 1412.288 1414.176 1418.644 1419.785 1417.093 1417.075 1418.075 1416.302 1414.285 1420.945 1428.589 1435.977 1444.379 1453.427 1461.096 1468.029 1474.638 1478.519 1480.441 1481.127 1480.883 1479.959 1479.162 1478.201 1477.671
1393.536 1401.057 1404.147 1403.958 1395.99 1387.176 1378.758 1373.788 1372.186 1368.555 1362.967 1358.269 1354.895 1351.365 1349.057 1346.462 1343.606 1341.655 1336.226 1334.419 1334.492 1336.781 1341.801 1345.198 1342.637 1344.256 1345.751 1346.668 1348.656 1354.199 1362.529 1370.744 1379.405 1379.347 1373.62 1364.859 1357.581 1356.756 1355.522 1353.248 1351.227 1349.719 1349.122 1348.906 1348.853 1350.588 1356.229 1357.22 1355.972 1354.565 1350.668 1345.753 1343.197 1341.142 1339.814 1338.547 1337.713 1337.713 1338.685 1339.807 1341.568 1344.491 1348.457 1350.408 1350.77 1350.799 1350.637 1349.218 1347.24 1345.811 1344.738 1344.209 1344.648 1345.524 1346.41 1346.658 1346.762 1346.732 1346.86 1347.231 1347.773 1349.174 1350.45 1352.249 1353.597 1353.729 1352.437 1351.491 1352.072 1353.18 1355.086 1356.235 1356.677 1356.643 1357.092 1357.757 1358.34 1359.69 1360.209 1359.331 1358.196 1358.043 1358.876 1359.968 1361.296 1363.172 1364.481 1364.743 1364.2 1363.939 1364.476 1365.859 1366.809 1366.577 1367.311 1369.595 1371.562 1372.581 1373.463 1374.019 1374.245 1374.77 1375.823 1377.18 1379.388 1381.063 1382.609 1384.546 1385.918 1385.323 1384.305 1385.915 1386.95 1387.555 1387.194 1385.967 1385.023 1384.25 1385.573 1387.39 1389.177 1390.846 1392.959 1394.658 1395.76 1396.708 1396.736 1396.93 1396.905 1396.443 1396.067 1397.142 1397.714 1397.721 1397.045 1395.811 1392.845 1389.548 1389.771 1394.469 1395.619 1394.64 1394.511 1395.333 1395.71 1394.443 1391.536 1389.155 1386.347 1381.522 1380.012 1381.052 1383.067 1385.396 1386.74 1388.74 1389.792 1390.432 1390.12 1389.07 1387.931 1386.362 1384.39 1382.3 1380.319 1377.859 1375.357 1373.875 1372.989 1371.161 1368.367 1366.268 1367.407 1373.905 1381.52 1386.53 1392.028 1395.74 1397.956 1399.08 1398.969 1397.825 1397.642 1397.721 1398.16 1399.243 1399.738 1399.258 1397.995 1396.975 1395.056 1392.379 1389.925 1387.617 1384.741 1380.55 1375.292 1371.241 1365.724 1363.776 1364.171 1364.669 1364.945 1364.224 1363.215 1362.708 1363.193 1364.424 1365.527 1364.879 1362.886 1363.719 1365.126 1369.149 1372.864 1373.82 1375.458 1378.356 1379.378 1381.407 1384.164 1386.805 1388.443 1389.458 1390.716 1391.63 1392.979 1391.812 1390.308 1389.183 1389.71 1390.958 1391.271 1390.618 1389.325 1388.182 1388.691 1389.794 1390.793 1391.687 1392.748 1393.886 1394.214 1394.719 1395.548 1396.414 1397.305 1396.966 1397.701 1398.76 1400.253 1401.472 1402.379 1402.741 1402.834 1403.745 1403.968 1403.766 1402.736 1401.902 1401.592 1402.365 1402.492 1402.697 1403.208 1404.227 1404.798 1403.389 1402.758 1403.668 1406.06 1405.356 1405.376 1406.639 1406.147 1402.661 1402.136 1403.253 1402.375 1402.283 1405.849 1409.587 1408.889 1405.331 1406.868 1408.847 1411.083 1414.753 1418.435 1419.388 1416.701 1415.693 1421.137 1423.611 1421.53 1422.759 1425.68 1424.468 1419.161 1421.239 1428.586 1436.44 1444.383 1453.008 1460.955 1468.232 1473.888 1476.207 1476.556 1475.876 1474.854 1474.051 1473.413 1471.838 1470.14
1394.433 1400.803 1402.863 1401.288 1395.102 1387.964 1380.193 1373.782 1369.56 1365.758 1360.729 1357.472 1355.233 1352.877 1350.518 1348.002 1344.658 1342.134 1337.851 1335.478 1334.989 1335.832 1339.806 1346.748 1348.198 1347.726 1348.831 1349.402 1349.463 1352.061 1360.15 1368.341 1376.883 1379.004 1374.622 1365.612 1359.369 1361.896 1362.187 1359.842 1356.839 1354.315 1352.2 1350.375 1349.781 1349.893 1353.656 1357.165 1357.272 1354.483 1349.75 1346.364 1344.209 1342.039 1340.905 1340.417 1339.961 1340.64 1340.998 1341.48 1341.074 1342.358 1346.847 1349.953 1351.452 1352.223 1350.731 1349.16 1347.355 1346.703 1346.021 1345.641 1345.843 1346.534 1347.553 1348.382 1348.456 1348.451 1348.485 1348.579 1348.728 1349.102 1350.077 1353.04 1355.197 1355.412 1354.18 1353.565 1353.792 1354.695 1356.104 1357.193 1357.887 1357.524 1357.12 1357.28 1357.464 1359.596 1361.875 1361.63 1359.463 1358.303 1359.311 1362.825 1366.353 1368.122 1368.706 1368.407 1367.422 1367.074 1367.995 1370.221 1371.6 1370.281 1369.196 1370.529 1372.309 1373.866 1375.76 1377.259 1377.66 1377.498 1378.082 1378.777 1379.958 1382.458 1384.937 1387.183 1388.318 1387.372 1386.472 1387.33 1388.094 1389.559 1390.887 1390.727 1389.913 1388.872 1387.165 1386.937 1387.425 1389.128 1391.887 1393.894 1395.342 1397.237 1397.643 1397.881 1398.388 1398.05 1397.636 1397.791 1397.865 1398.59 1396.353 1395.844 1395.19 1393.076 1393.35 1395.512 1396.626 1395.793 1395.62 1395.698 1395.224 1393.588 1390.641 1387.415 1384.467 1380.962 1380.142 1381.855 1384.742 1387.273 1387.835 1389.542 1390.471 1390.686 1390.073 1388.581 1387.146 1386.044 1384.118 1382.171 1380.081 1377.09 1373.663 1372.08 1371.904 1370.425 1369.094 1369.042 1372.292 1377.411 1381.118 1385.536 1391.708 1395.634 1398.322 1400.241 1401.283 1401.47 1401.846 1401.923 1402.117 1402.329 1401.394 1399.56 1397.12 1394.854 1392.178 1388.775 1386.095 1383.603 1381.001 1377.283 1372.576 1368.587 1365.461 1365.419 1366.343 1366.77 1366.508 1365.2 1363.706 1363.448 1364.258 1366.058 1368.34 1368.729 1365.424 1363.23 1363.236 1365.943 1369.1 1370.34 1371.129 1372.618 1374.452 1378.799 1382.367 1385.498 1387.461 1388.7 1389.807 1390.536 1390.647 1388.81 1387.566 1387.17 1387.734 1388.5 1388.675 1388.391 1388.015 1387.448 1387.823 1388.489 1390.102 1392.215 1394.109 1395.32 1394.954 1395.029 1395.591 1396.468 1396.986 1398.26 1398.663 1399.591 1400.605 1401.565 1402.515 1403.469 1403.734 1404.598 1403.977 1403.808 1403.575 1403.534 1403.667 1404.508 1404.636 1406.032 1407.443 1409.135 1410.029 1409.619 1406.628 1403.378 1407.053 1409.288 1409.84 1410.286 1410.188 1405.47 1403.141 1406.648 1407.838 1405.592 1406.803 1410.865 1413.667 1411.632 1411.393 1413.313 1413.622 1415.601 1419.779 1423.411 1421.662 1419.02 1423.572 1426.291 1426.053 1427.867 1430.809 1431.22 1427.319 1423.278 1428.752 1436.65 1443.859 1451.379 1458.92 1466.711 1471.189 1472.409 1471.475 1469.845 1468.149 1466.983 1466.984 1465.049 1462.922
1393.858 1397.744 1397.681 1395.265 1390.887 1385.849 1379.935 1374.196 1368.842 1365.084 1360.794 1358.012 1356.511 1354.349 1351.508 1348.907 1344.974 1341.619 1338.447 1336.549 1336.513 1337.824 1340.709 1344.423 1351.26 1353.136 1353.786 1352.94 1351.16 1350.044 1355.115 1364.229 1370.977 1376.722 1376.776 1371.607 1366.965 1370.718 1372.484 1370.367 1365.139 1359.776 1355.587 1351.494 1349.853 1349.854 1351.042 1353.297 1353.615 1351.4 1348.115 1345.474 1342.544 1341.91 1341.706 1341.04 1340.855 1341.433 1341.842 1341.842 1341.793 1342.058 1345.909 1349.278 1351.775 1352.799 1351.571 1349.431 1348.028 1347.556 1346.953 1346.649 1346.771 1347.444 1348.557 1349.46 1349.7 1349.724 1349.748 1349.791 1349.836 1349.947 1350.851 1354.234 1356.393 1356.674 1355.886 1355.427 1355.49 1356.255 1357.283 1357.73 1358.679 1359.46 1359.263 1358.877 1357.771 1359.019 1362.1 1363.014 1361.276 1359.083 1358.725 1363.966 1369.162 1371.256 1372.136 1372.51 1372.505 1372.727 1373.819 1375.539 1376.49 1374.053 1371.393 1371.365 1372.65 1374.703 1377.736 1379.894 1380.436 1380.004 1380.18 1381.149 1382.583 1385.043 1387.375 1389.259 1390.144 1388.901 1388.155 1388.036 1388.159 1390.406 1393.339 1394.63 1394.073 1392.586 1390.512 1387.7 1387.771 1388.97 1392.171 1394.494 1394.994 1396.069 1398.332 1399.36 1399.56 1399.232 1398.883 1399.229 1398.852 1398.107 1396.119 1395.854 1395.829 1395.582 1395.607 1396.485 1396.836 1397.423 1397.212 1396.169 1394.627 1392.642 1390.381 1388.09 1384.292 1381.481 1381.483 1383.613 1386.641 1389.222 1390.551 1391.503 1391.571 1391.027 1390.068 1388.506 1387.039 1385.319 1383.295 1382.006 1379.994 1376.851 1373.562 1371.448 1370.968 1370.113 1369.88 1372.475 1377.804 1382.986 1386.311 1389.257 1393.029 1396.225 1398.987 1401.225 1402.805 1403.449 1403.689 1404.088 1403.684 1403.427 1401.207 1397.801 1394.5 1391.22 1387.852 1384.018 1380.827 1378.093 1376.137 1374.083 1371.437 1368.325 1367.736 1368.838 1369.352 1369.153 1368.035 1366.026 1364.584 1364.09 1365.277 1367.919 1370.615 1371.823 1369.68 1365.737 1363.877 1364.048 1365.004 1365.624 1366.133 1366.628 1368.195 1373.331 1378.683 1382.43 1385.239 1387.245 1388.639 1389.259 1388.381 1386.389 1385.475 1385.776 1386.408 1386.966 1387.164 1387.152 1387.132 1387.506 1387.937 1388.566 1390.207 1392.907 1394.63 1395.743 1395.69 1395.68 1395.794 1396.017 1396.641 1397.85 1398.769 1399.72 1400.653 1401.575 1402.527 1403.554 1404.55 1404.043 1403.914 1404.381 1404.589 1404.652 1404.742 1405.556 1405.73 1408.104 1409.413 1410.916 1411.649 1411.635 1410.898 1410.397 1409.484 1410.635 1411.921 1412.564 1412.507 1409.607 1405.6 1409.625 1412.259 1410.703 1409.696 1412.491 1417.282 1418.202 1416.577 1418.755 1419.044 1419.387 1422.351 1425.377 1425.561 1424.784 1426.253 1428.56 1430.301 1431.458 1432.661 1433.817 1432.986 1428.057 1430.418 1436.788 1442.918 1448.766 1454.58 1461.938 1465.533 1465.82 1464.279 1462.54 1460.806 1459.085 1458.766 1457.673 1456.261
1390.634 1392.373 1390.625 1387.047 1383.763 1380.568 1376.033 1370.975 1366.396 1363.198 1359.765 1357.724 1356.605 1354.291 1351.39 1348.58 1344.898 1341.485 1339.011 1337.753 1337.968 1339.841 1343.726 1348.602 1355.808 1360.424 1361.121 1360.156 1357.946 1354.078 1351.072 1357.334 1366.331 1373.703 1379.318 1381.34 1379.51 1381.099 1381.656 1379.333 1373.585 1366.028 1359.786 1353.608 1350.113 1349.854 1351.522 1350.607 1350.035 1349.212 1348.113 1346.351 1344.164 1342.053 1341.842 1341.718 1341.746 1342.343 1342.773 1342.076 1341.855 1342.739 1346.086 1349.546 1352.22 1354.109 1354.094 1351.353 1349.044 1348.033 1347.265 1346.941 1347.024 1347.751 1349.324 1349.898 1350.526 1350.712 1350.738 1350.798 1350.997 1351.603 1352.997 1355.209 1357.002 1357.461 1356.865 1356.237 1356.461 1357.5 1359.094 1359.433 1359.886 1361.691 1363.107 1362.705 1360.281 1360.064 1361.967 1363.433 1362.995 1361.043 1359.398 1363.158 1367.729 1370.897 1373.099 1374.93 1376.862 1377.972 1378.534 1379.436 1379.717 1376.77 1373.624 1372.574 1373.016 1374.617 1378.921 1381.372 1382.488 1382.48 1382.345 1383.98 1386.541 1388.853 1390.455 1392.013 1392.83 1391.533 1389.898 1388.943 1388.206 1389.433 1393.18 1395.935 1396.606 1395.743 1395.772 1391.069 1389.05 1388.734 1391.384 1394.254 1395.37 1395.293 1398.988 1399.86 1400.134 1400.434 1400.508 1400.073 1399.688 1397.4 1396.01 1395.854 1395.936 1396.394 1396.721 1396.822 1397.597 1397.101 1396.838 1396.074 1394.884 1392.273 1389.49 1387.264 1385.767 1384.37 1384.288 1385.854 1388.573 1391.166 1392.554 1393.527 1393.426 1392.495 1390.647 1388.48 1386.427 1385.07 1383.129 1381.844 1379.264 1375.652 1372.633 1371.179 1370.918 1370.133 1370.116 1373.205 1378.416 1383.655 1387.704 1390.963 1395.096 1397.215 1399.605 1401.945 1403.525 1404.062 1404.464 1404.774 1404.06 1402.239 1398.55 1394.222 1390.854 1387.801 1384.057 1381.355 1378.763 1375.829 1373.656 1372.794 1372.899 1372.359 1373.653 1374.101 1373.103 1371.834 1370.047 1367.343 1365.455 1364.612 1365.824 1368.889 1371.461 1372.828 1372.191 1368.465 1365.719 1365.542 1366.226 1365.941 1365.233 1364.781 1365.867 1369.551 1374.212 1378.282 1382.105 1384.916 1386.744 1387.252 1385.422 1383.738 1383.932 1385.101 1386.285 1386.871 1386.921 1386.883 1386.863 1387.666 1388.394 1389.016 1390.359 1393.069 1394.638 1395.677 1395.72 1395.696 1395.716 1395.817 1396.555 1397.661 1398.708 1399.601 1400.511 1401.449 1402.45 1403.525 1403.986 1404.594 1404.615 1404.589 1404.292 1404.49 1404.865 1405.64 1406.62 1408.533 1409.674 1410.717 1411.529 1411.854 1412.525 1412.694 1411.711 1411.783 1413.053 1414.274 1415.191 1414.134 1411.218 1413.739 1416.401 1416.255 1414.659 1415.276 1418.918 1420.577 1420.617 1422.694 1424.126 1424.637 1425.497 1427.082 1427.566 1428.178 1428.875 1430.212 1431.848 1432.552 1433.305 1434.584 1434.864 1433.608 1433.954 1437.581 1441.825 1445.718 1449.359 1454.334 1457.033 1456.932 1455.972 1454.919 1453.401 1451.868 1451.716 1451.291 1450.369
1385.918 1386.718 1384.935 1380.098 1375.939 1373.708 1370.829 1366.721 1362.788 1359.643 1357.03 1355.5 1353.964 1351.863 1349.512 1346.921 1344.37 1341.894 1339.483 1338.555 1339.27 1341.374 1346.477 1354.61 1363.122 1369.877 1371.241 1370.104 1367.663 1364.192 1358.796 1355.789 1361.92 1371.26 1380.322 1387.786 1391.298 1391.321 1390.461 1386.371 1377.111 1368.66 1361.713 1357.131 1351.834 1349.865 1353.882 1352.569 1351.839 1350.871 1349.789 1348.243 1346.842 1344.781 1343.547 1342.29 1342.445 1343.315 1343.732 1342.314 1341.857 1343.534 1346.925 1350.075 1353.296 1355.964 1356.567 1353.514 1350.217 1348.885 1348.014 1347.729 1347.814 1348.025 1349.445 1350.57 1351.364 1351.674 1351.739 1351.911 1352.563 1353.421 1354.513 1355.779 1357.324 1357.86 1357.192 1356.735 1356.912 1358.388 1360.839 1362.546 1363.103 1363.491 1364.586 1364.899 1363.049 1362.057 1362.612 1363.681 1364.126 1363.558 1362.31 1363.25 1365.739 1369.458 1372.623 1375.175 1378.127 1379.997 1380.446 1381.244 1381.019 1378.787 1376.313 1375.09 1374.124 1374.901 1379.384 1382.332 1384.79 1385.818 1385.444 1386.735 1389.661 1392.943 1394.242 1395.321 1395.718 1394.097 1391.802 1390.639 1389.812 1390.213 1392.763 1395.634 1398.706 1399.962 1400.034 1395.941 1389.969 1388.659 1390.256 1393.443 1395.664 1396.756 1398.922 1400.52 1401.36 1401.688 1401.606 1400.901 1399.485 1397.203 1395.991 1395.868 1396.048 1396.626 1397.404 1397.672 1397.83 1397.654 1396.196 1394.885 1393.341 1390.95 1388.52 1387.775 1387.547 1386.513 1386.062 1387.549 1389.965 1392.193 1394.36 1395.521 1394.688 1393.078 1390.78 1388.485 1386.406 1384.294 1382.204 1380.828 1376.732 1373.389 1371.885 1371.22 1371.674 1370.995 1370.765 1372.023 1374.259 1378.277 1381.885 1386.133 1392.826 1395.766 1397.938 1401.262 1403.813 1404.649 1404.791 1404.849 1403.892 1399.978 1395.225 1390.755 1388.433 1387.447 1385.362 1383.93 1381.473 1377.263 1374.028 1374.429 1377.805 1379.615 1380.734 1379.315 1376.811 1374.722 1372.509 1368.962 1366.047 1364.934 1366.224 1369.205 1371.762 1372.796 1371.905 1370.069 1368.265 1368.79 1369.54 1369.278 1368.328 1367.022 1367.085 1369.203 1371.743 1374.961 1379.178 1382.594 1384.629 1384.933 1382.516 1381.444 1382.913 1385.446 1387.132 1387.533 1387.483 1387.071 1386.976 1387.722 1388.49 1389.314 1390.505 1392.546 1394.36 1394.956 1394.964 1394.939 1395.032 1395.152 1395.854 1397.486 1398.037 1398.844 1399.7 1400.635 1401.639 1402.714 1403.673 1403.961 1403.924 1403.931 1403.914 1403.96 1404.539 1405.62 1405.958 1407.122 1408.737 1409.869 1410.674 1411.006 1411.69 1411.936 1412.663 1413.404 1414.39 1415.826 1416.738 1418.139 1418.517 1418.2 1418.526 1418.582 1418.329 1418.691 1420.966 1421.805 1423.35 1424.977 1426.174 1426.566 1426.709 1427.452 1427.744 1428.565 1429.046 1430.286 1431.409 1431.915 1432.701 1433.974 1435.289 1435.801 1436.338 1437.945 1440.34 1442.833 1445.054 1447.443 1448.414 1448.287 1448.13 1447.644 1446.495 1444.673 1444.855 1445.041 1444.773
1380.359 1381.054 1380.114 1375.84 1371.03 1368.43 1366.876 1364.349 1360.911 1358.259 1355.003 1352.757 1350.63 1348.761 1346.629 1344.339 1342.776 1341.43 1340.296 1339.869 1341.185 1344.685 1351.087 1360.43 1368.611 1377.846 1380.204 1379.341 1377.587 1374.203 1367.129 1358.763 1358.114 1369.702 1379.835 1389.711 1398.222 1400.208 1397.268 1388.96 1380.13 1372.371 1365.661 1360.342 1356.107 1356.318 1358.288 1358.674 1359.077 1357.407 1354.57 1350.769 1348.865 1347.629 1345.685 1344.447 1343.902 1344.257 1344.112 1342.334 1342.657 1344.469 1347.324 1350.133 1353.003 1355.839 1356.817 1355.933 1352.202 1350.085 1349.014 1348.722 1348.787 1348.847 1349.617 1350.695 1351.656 1352.392 1352.814 1353.396 1353.951 1354.63 1355.498 1356.516 1358.04 1358.616 1357.702 1357.006 1357.582 1359.356 1361.968 1364.176 1365.112 1364.525 1364.771 1365.584 1365.014 1363.929 1363.699 1363.932 1364.538 1364.915 1364.634 1364.162 1364.779 1367.298 1370.243 1373.171 1376.365 1379.04 1380.161 1381.334 1381.13 1379.993 1378.844 1378.28 1376.615 1376.683 1379.555 1382.87 1386.189 1387.964 1388.203 1389.047 1392.323 1396.335 1398.046 1398.953 1398.535 1396.374 1393.937 1392.711 1392.77 1393.831 1394.552 1396.131 1400.388 1402.667 1402.413 1398.434 1391.081 1388.703 1389.73 1393.142 1396.112 1398.039 1399.958 1401.493 1402.493 1402.695 1402.177 1401.208 1399.95 1397.36 1396.024 1395.941 1396.608 1397.413 1397.832 1397.861 1397.854 1397.076 1395.212 1393.28 1391.054 1388.887 1387.958 1388.592 1389.613 1388.643 1387.768 1388.498 1390.681 1393.154 1395.388 1396.616 1395 1392.663 1390.437 1387.973 1385.503 1383.334 1381.213 1377.728 1373.799 1372.08 1371.923 1372.078 1373.491 1372.171 1371.083 1372.487 1375.561 1379.401 1381.921 1382.15 1386.622 1389.28 1394.044 1399.003 1402.797 1404.556 1404.949 1404.881 1403.373 1398.16 1393.967 1390.999 1390.676 1391.133 1389.02 1387.319 1382.65 1376.657 1374.102 1378.179 1384.752 1386.465 1386.085 1383.52 1380.219 1377.667 1374.811 1370.3 1366.744 1365.079 1366.588 1369.796 1372.099 1372.474 1371.226 1370.565 1370.389 1371.448 1372.012 1372.011 1371.475 1370.044 1369.037 1369.833 1371.641 1373.722 1377.309 1380.904 1382.866 1383.01 1380.926 1380.217 1382.368 1385.755 1387.648 1387.948 1387.943 1387.688 1387.664 1387.863 1388.127 1388.835 1390.189 1391.748 1392.638 1393.856 1393.981 1394.018 1394.464 1394.866 1395.56 1396.825 1397.652 1397.933 1398.721 1399.636 1400.595 1401.68 1402.213 1402.877 1402.941 1403.395 1403.594 1403.686 1403.371 1403.285 1404.04 1405.769 1407.009 1408.168 1408.964 1409.75 1410.712 1412.506 1412.824 1413.785 1415.165 1416.438 1417.464 1418.572 1419.631 1420.509 1420.504 1420.518 1420.96 1421.072 1422.224 1422.788 1424.399 1424.922 1425.69 1425.95 1425.995 1426.55 1426.845 1427.649 1428.544 1429.479 1430.072 1430.587 1431.49 1432.802 1434.41 1435.621 1436.045 1436.59 1437.681 1439.433 1440.59 1441.42 1441.347 1440.818 1440.316 1439.714 1438.619 1436.668 1437.782 1438.348 1438.61
1375.101 1375.815 1375.604 1372.79 1368.47 1365.466 1364.079 1362.438 1360.145 1358.399 1354.985 1350.816 1348.224 1346.574 1344.755 1342.822 1341.6 1341.079 1340.48 1341.291 1344.362 1350.2 1358.087 1366.912 1374.261 1383.792 1387.712 1388.424 1387.102 1383.059 1374.816 1363.881 1357.855 1367.729 1378.111 1388.731 1399.028 1402.648 1400.054 1392.849 1385.06 1377.486 1370.183 1363.172 1357.981 1360.246 1363.737 1364.666 1365.273 1363.75 1359.716 1354.746 1351.909 1349.789 1347.728 1347.093 1346.427 1345.818 1344.455 1342.339 1341.92 1343.766 1346.612 1349.333 1352.089 1354.934 1357.303 1356.979 1355.67 1352.197 1350.266 1349.743 1349.748 1349.181 1349.659 1350.706 1351.686 1352.726 1353.943 1354.818 1355.519 1355.799 1355.902 1356.892 1358.994 1360.219 1359.472 1357.893 1358.415 1360.239 1362.371 1364.39 1365.411 1365.138 1365.479 1366.597 1366.931 1366.047 1365.067 1364.393 1364.543 1365.227 1365.604 1365.183 1364.495 1365.152 1367.071 1369.86 1372.96 1375.841 1377.704 1380.01 1381.058 1380.89 1380.582 1380.501 1379.027 1378.736 1380.366 1383.344 1386.283 1388.058 1389.232 1391.376 1394.933 1398.659 1401.312 1402.416 1401.555 1399.854 1396.99 1395.008 1395.767 1398.036 1398.438 1398.845 1401.6 1403.461 1403.769 1398.476 1392.05 1389.264 1389.972 1393.034 1396.178 1398.319 1400.464 1402.29 1403.324 1403.519 1402.979 1402.001 1400.83 1398.145 1396.106 1396.189 1397.474 1398.437 1398.667 1398.081 1397.862 1396.26 1394.412 1392.352 1389.844 1388.224 1389.095 1391.065 1391.7 1390.983 1390.817 1391.396 1392.776 1394.373 1395.636 1395.961 1394.255 1391.697 1389.112 1386.699 1383.924 1381.422 1377.699 1373.39 1372.889 1373.516 1376.308 1379.553 1379.092 1374.512 1372.015 1372.442 1376.266 1381.477 1386.419 1387.692 1387.057 1388.02 1393.352 1398.189 1401.887 1404.3 1405.473 1405.13 1403.464 1398.711 1395.949 1395.519 1396.156 1395.051 1391.143 1387.371 1379.672 1375.013 1374.963 1380.632 1388.222 1390.702 1389.892 1387.482 1384.185 1380.995 1376.613 1371.023 1367.404 1365.567 1367.191 1370.603 1372.381 1372.189 1371.018 1370.752 1371.457 1372.699 1373.259 1373.374 1372.914 1371.709 1370.533 1370.967 1372.395 1373.568 1375.601 1378.955 1381.175 1381.618 1380.354 1379.86 1381.598 1384.565 1387.128 1388.223 1388.487 1388.583 1388.664 1388.195 1387.946 1388.177 1389.164 1390.727 1391.655 1392.951 1393.134 1393.221 1393.827 1394.553 1395.066 1395.886 1396.294 1396.858 1397.634 1398.438 1399.051 1399.885 1400.276 1401.077 1401.706 1401.94 1402.214 1402.62 1402.385 1402.662 1403.699 1404.761 1405.443 1406.027 1407.303 1408.686 1410.367 1411.81 1412.786 1413.762 1414.848 1416.223 1417.524 1418.586 1419.682 1420.723 1420.9 1421.417 1421.757 1421.842 1422.548 1422.852 1422.973 1423.87 1424.167 1424.266 1424.625 1424.923 1425.586 1425.961 1426.954 1427.818 1428.206 1428.681 1429.091 1430.539 1432.306 1433.726 1433.785 1433.903 1434.506 1435.217 1435.353 1435.111 1434.852 1433.424 1431.912 1431.053 1430.329 1430.145 1431.603 1432.211 1432.694
1370.321 1370.916 1370.91 1369.025 1365.853 1363.524 1361.802 1359.973 1358.727 1357.812 1354.642 1349.751 1347.138 1345.664 1344.356 1343.041 1342.298 1341.875 1341.244 1343.183 1348.874 1356.819 1365.963 1375.23 1382.165 1390.454 1395.772 1396.489 1394.105 1389.019 1380.011 1368.84 1360.335 1367.92 1377.456 1387.844 1398.053 1402.894 1401.125 1395.057 1388.365 1380.636 1372.417 1363.771 1359.122 1363.03 1369.151 1370.983 1370.35 1368.305 1364.563 1360.209 1356.155 1352.869 1349.873 1348.618 1347.801 1346.906 1345.368 1343.254 1341.982 1344.372 1347.111 1348.889 1351.154 1354.5 1356.632 1357.651 1357.675 1354.891 1352.789 1351.784 1351.033 1350.101 1349.864 1350.75 1351.781 1353.297 1354.981 1356.318 1356.853 1356.924 1356.886 1357.809 1360.584 1362.838 1362.672 1360.591 1359.895 1360.843 1362.634 1364.729 1365.734 1365.719 1366.38 1368.136 1369.211 1368.578 1367.038 1365.359 1364.559 1365.032 1366.429 1366.899 1365.553 1364.913 1365.586 1367.296 1369.767 1372.054 1373.835 1377.249 1380.152 1381.27 1381.617 1381.672 1380.884 1380.818 1382.292 1384.56 1386.584 1388.133 1389.835 1393.64 1396.759 1400.203 1403.343 1405.206 1405.109 1403.86 1400.392 1397.807 1398.22 1401.039 1402.12 1402.289 1403.163 1403.717 1403.219 1397.781 1393.173 1391.033 1391.479 1393.703 1396.278 1398.293 1400.417 1402.511 1403.58 1403.828 1403.662 1403.314 1402.356 1398.815 1396.439 1397.489 1399.126 1399.789 1399.676 1398.886 1398.003 1396.101 1394.813 1392.808 1391.214 1390.529 1391.752 1393.931 1394.388 1393.004 1392.837 1393.565 1394.893 1395.692 1396.523 1395.94 1393.264 1390.745 1388.457 1385.976 1382.872 1376.802 1372.786 1372.191 1373.596 1376.789 1381.273 1384.666 1382.695 1377.472 1373.183 1372.911 1375.048 1379.624 1386.205 1389.493 1390.552 1390.619 1395.11 1399.304 1402.212 1404.327 1405.605 1405.782 1404.852 1402.468 1401.161 1400.69 1399.185 1396.047 1391.638 1383.472 1377.038 1376.76 1379.397 1382.78 1388.282 1392.974 1392.976 1391.096 1388.69 1384.937 1378.148 1371.579 1368.46 1366.948 1368.139 1371.114 1372.374 1371.887 1371.078 1370.943 1372.057 1373.121 1373.405 1373.565 1373.065 1372.005 1371.157 1372.007 1373.271 1373.551 1373.963 1376.338 1379.085 1380.185 1379.865 1379.804 1380.755 1382.788 1385.991 1388.036 1388.638 1389.104 1389.421 1388.876 1388.391 1388.296 1388.828 1390.049 1391.46 1392.659 1392.952 1393.112 1393.594 1394.083 1394.614 1395.068 1395.142 1395.846 1396.196 1396.722 1397.116 1397.448 1398.155 1399.069 1399.382 1400.564 1401.562 1402.038 1402.008 1402.618 1403.021 1403.189 1403.438 1404.341 1406.498 1408.51 1409.695 1410.111 1411.015 1412.835 1414.523 1416.163 1417.5 1417.932 1418.768 1419.87 1420.797 1421.543 1421.851 1421.868 1421.911 1422.664 1423.688 1423.08 1423.038 1423.04 1423.028 1422.95 1423.566 1424.62 1425.637 1426.021 1426.228 1426.587 1426.432 1427.062 1428.691 1430.162 1430.598 1430.893 1431.395 1431.404 1431.123 1430.155 1428.915 1427.001 1426.233 1426.596 1427.404 1428.587 1429.29 1429.524 1429.45
1365.78 1366.012 1365.891 1364.369 1363.115 1361.976 1360.349 1358.419 1356.823 1355.661 1352.121 1348.64 1346.762 1345.711 1344.787 1343.947 1343.789 1343.774 1344.413 1348.267 1355.218 1363.502 1372.502 1382.076 1390.084 1397.936 1401.933 1401.608 1398.403 1392.227 1383.059 1372.105 1362.957 1368.606 1377.778 1387.926 1396.261 1399.685 1398.868 1393.156 1386.496 1379.018 1371.069 1363.023 1360.329 1365.688 1373.17 1376.682 1376.089 1374.036 1371.155 1367.127 1361.402 1356.063 1352.904 1350.939 1349.383 1348.135 1346.452 1344.258 1343.629 1344.665 1348.051 1350.604 1353.3 1355.924 1357.504 1357.836 1357.848 1356.655 1354.859 1353.29 1352.066 1351.091 1350.834 1351.654 1352.547 1353.668 1355.257 1357.063 1358.406 1358.76 1358.693 1359.665 1362.428 1364.38 1364.548 1363.23 1362.068 1362.512 1363.434 1364.764 1366.232 1367.632 1369.259 1370.46 1370.894 1370.846 1369.571 1367.086 1365.199 1365.124 1367.818 1369.411 1368.22 1366.625 1366.037 1366.554 1368.296 1370.315 1371.66 1374.349 1378.122 1380.572 1382.008 1383.115 1383.683 1384.027 1384.847 1386.606 1388.314 1389.791 1391.84 1395.628 1398.186 1401.032 1403.546 1407.307 1408.979 1407.514 1403.589 1400.937 1400.484 1402.349 1403.785 1404.345 1404.689 1404.024 1402.45 1397.625 1394.214 1393.094 1393.388 1394.607 1396.351 1398.34 1400.302 1402.366 1403.431 1403.814 1403.933 1403.82 1402.993 1400.557 1398.48 1399.476 1400.98 1401.435 1400.865 1399.78 1398.153 1396.099 1395.546 1394.273 1393.504 1392.914 1393.871 1395.419 1395.644 1394.082 1394.086 1395.101 1396.292 1396.703 1396.821 1395.946 1393.156 1390.44 1388.215 1384.896 1381.026 1373.975 1372.718 1374.276 1376.697 1380.265 1385.304 1386.603 1384.913 1379.624 1374.265 1373.062 1373.705 1377.487 1383.825 1388.915 1393.752 1393.719 1395.17 1398.988 1402.565 1405.047 1405.884 1405.936 1405.845 1404.71 1403.731 1402.449 1399.536 1395.125 1389.015 1380.49 1378.519 1381.143 1385.506 1387.497 1389.266 1394.109 1396.024 1394.89 1392.917 1388.047 1378.803 1371.616 1369.333 1368.47 1368.882 1370.537 1371.552 1371.276 1370.899 1371.219 1372.204 1373.04 1373.455 1373.624 1373.066 1372.136 1371.88 1372.532 1373.904 1374.38 1373.801 1374.194 1376.438 1378.487 1378.976 1379.63 1380.974 1383.189 1385.85 1387.586 1388.15 1388.494 1389.407 1389.649 1389.53 1389.453 1389.678 1390.469 1391.618 1392.682 1393.381 1393.713 1393.931 1394.02 1394.215 1394.727 1394.853 1395.087 1395.135 1395.27 1395.376 1395.441 1396.166 1396.6 1397.966 1399.916 1401.442 1402.368 1402.681 1402.821 1402.865 1402.908 1403.692 1404.753 1406.398 1408.298 1409.591 1409.861 1410.806 1412.119 1414.237 1416.161 1417.509 1418.476 1418.833 1419.745 1420.706 1421.083 1421.569 1421.855 1421.869 1422.648 1422.08 1421.332 1421.255 1421.168 1420.577 1420.038 1419.934 1420.929 1422.907 1423.886 1424.132 1424.103 1423.989 1424.195 1425.532 1426.339 1427.009 1427.774 1428.44 1428.317 1427.666 1426.594 1425.52 1425.023 1426.133 1428.789 1432.322 1436.324 1435.749 1433.861 1431.993
1362.454 1362.059 1361.499 1360.216 1360.275 1360.111 1359.231 1357.863 1355.384 1352.402 1349.426 1347.51 1346.654 1346.021 1345.418 1345.064 1345.668 1347.077 1349.899 1355.511 1362.311 1369.55 1377.462 1386.754 1394.339 1401.074 1402.851 1403.113 1401.345 1394.871 1385.434 1375.948 1365.992 1369.148 1377.871 1387.503 1394.561 1396.721 1394.699 1388.037 1380.385 1373.658 1367.677 1363.452 1362.973 1367.867 1376.604 1381.418 1382.25 1381.956 1379.398 1373.765 1365.937 1358.457 1354.956 1352.281 1350.562 1349.546 1347.742 1345.885 1345.596 1346.5 1348.593 1351.769 1355.479 1357.602 1358.465 1358.01 1358.665 1357.704 1356.085 1354.834 1353.958 1353.679 1353.718 1352.838 1352.855 1353.677 1354.813 1356.391 1358.268 1359.58 1359.796 1362.027 1364.054 1365.729 1366.055 1365.111 1364.04 1363.713 1363.898 1364.751 1366.289 1368.311 1371.182 1372.594 1372.78 1373.201 1372.334 1369.812 1366.669 1365.61 1370.313 1372.339 1371.65 1369.761 1368.568 1368.21 1369.235 1371.148 1371.882 1372.489 1375.224 1378.615 1381.355 1383.696 1385.697 1386.688 1387.078 1388.863 1391.604 1393.618 1395.812 1398.521 1400.229 1401.825 1403.376 1408.713 1412.223 1411.649 1407.462 1404.346 1402.842 1403.269 1404.63 1405.149 1405.111 1403.895 1401.907 1396.998 1394.848 1394.835 1394.867 1395.188 1396.016 1397.794 1399.619 1401.657 1402.871 1403.69 1404.262 1404.085 1403.128 1401.904 1400.576 1401.307 1402.367 1402.533 1401.7 1399.695 1397.526 1396.011 1395.833 1395.62 1395.336 1394.458 1395.064 1396.407 1395.336 1394.872 1395.462 1396.07 1396.985 1397.124 1396.859 1395.248 1392.983 1389.703 1386.633 1382.45 1379.387 1377.556 1378.031 1378.826 1381.436 1385.333 1387.738 1387.693 1386.234 1380.688 1375.203 1373.237 1373.371 1376.444 1380.974 1386.481 1394.38 1397.347 1398.152 1400.204 1402.94 1405.272 1406.641 1406.908 1406.751 1405.087 1403.637 1401.236 1397.059 1391.608 1383.429 1380.045 1383.769 1386.271 1390.572 1393.419 1394.232 1396.992 1399.77 1399.088 1395.811 1388.59 1377.996 1371.073 1369.785 1369.214 1369.45 1369.689 1370.425 1370.612 1370.907 1371.689 1372.016 1372.692 1373.555 1373.735 1373.068 1372.246 1372.45 1372.904 1374.824 1376.161 1375.704 1374.937 1375.337 1377.332 1378.248 1379.339 1381.665 1385.209 1387.402 1388.038 1388.065 1388.014 1389.157 1390.516 1390.924 1390.915 1390.966 1391.589 1392.396 1392.921 1393.798 1394.415 1394.679 1394.679 1394.596 1394.858 1394.953 1394.99 1395.002 1394.935 1394.967 1395.016 1395.233 1395.852 1398.406 1400.892 1401.947 1402.601 1403.363 1403.611 1403.027 1403.611 1404.643 1405.811 1407.318 1409.067 1409.843 1410.55 1411.686 1412.884 1414.59 1416.217 1417.519 1418.559 1419.562 1420.632 1420.802 1420.89 1421.062 1421.536 1421.859 1421.912 1421.059 1419.449 1419.287 1419.189 1418.5 1417.384 1416.964 1418.701 1420.04 1421.092 1421.387 1421.26 1421.128 1421.261 1422.525 1423.355 1424.992 1425.818 1426.334 1426.37 1426.22 1425.885 1425.739 1427.555 1431.155 1435.854 1440.863 1445.939 1446.018 1444.609 1443.278
1360.416 1359.633 1358.716 1357.487 1357.702 1357.899 1357.764 1356.973 1354.288 1350.336 1348.355 1347.106 1346.791 1346.389 1346.377 1346.607 1348.057 1350.909 1355.766 1361.779 1368.158 1374.395 1380.929 1387.869 1392.515 1397.214 1399.606 1401.705 1402.568 1397.337 1388.578 1380.76 1369.574 1369.951 1377.246 1385.787 1391.704 1391.868 1388.79 1381.08 1372.486 1367.676 1365.616 1364.945 1364.562 1368.38 1377.904 1384.438 1387.32 1389.045 1385.279 1376.612 1367.011 1359.621 1356.03 1353.202 1351.66 1350.261 1348.427 1346.97 1346.711 1346.905 1348.639 1351.06 1353.948 1356.313 1358.289 1358.765 1358.825 1358.565 1357.087 1355.933 1355.111 1355.401 1354.979 1353.877 1353.7 1353.946 1355.106 1356.52 1357.615 1359.405 1360.657 1362.549 1364.512 1366.765 1368.614 1367.689 1365.443 1364.09 1364.58 1364.874 1365.495 1367.308 1370.657 1373.253 1374.406 1374.6 1374.372 1372.525 1369.102 1366.59 1370.888 1374.182 1374.542 1373.137 1372.138 1371.083 1370.92 1372.339 1372.945 1372.236 1373.062 1375.908 1379.476 1382.576 1385.265 1387.096 1388.637 1391.238 1394.806 1397.541 1400.066 1402.104 1403.53 1404.581 1406.174 1410.894 1414.952 1415.921 1412.073 1408.24 1405.582 1405.194 1405.753 1405.45 1404.464 1402.805 1400.106 1396.058 1395.406 1395.852 1395.67 1395.294 1395.395 1396.933 1398.716 1400.78 1402.333 1403.439 1404.336 1404.507 1403.699 1402.757 1401.808 1402.53 1403.262 1402.938 1401.561 1399.313 1396.741 1395.899 1395.988 1396.477 1396.221 1395.612 1395.761 1396.647 1395.83 1395.794 1396.578 1397.14 1397.224 1397.396 1397.012 1395.086 1392.269 1389.302 1386.076 1381.631 1379.009 1380.037 1382.818 1387.144 1386.931 1387.88 1388.636 1388.086 1385.706 1381.418 1375.339 1373.279 1373.767 1379.321 1386.414 1390.789 1395.05 1398.452 1400.96 1402.789 1404.499 1407.166 1408.725 1408.754 1407.002 1404.214 1400.508 1396.152 1391.282 1387.062 1383.877 1384.368 1389.593 1392.588 1394.811 1397.398 1399.41 1401.504 1402.462 1401.333 1395.399 1386.032 1376.211 1370.861 1370.301 1369.848 1369.893 1369.77 1370.099 1370.692 1371.465 1372.346 1372.333 1372.832 1373.609 1373.737 1373.072 1372.269 1372.603 1373.433 1375.979 1378.111 1379.28 1379.697 1378.986 1378.79 1378.913 1379.811 1382.722 1387.106 1389.863 1390.058 1389.354 1389.063 1390.119 1391.906 1392.533 1392.592 1392.618 1393.09 1393.537 1393.642 1394.462 1395.012 1395.501 1395.599 1395.152 1395.391 1395.59 1395.688 1395.687 1395.467 1395.671 1396.186 1396.439 1397.218 1399.908 1402.033 1402.74 1402.981 1403.645 1404.422 1403.852 1404.642 1405.806 1407.394 1408.988 1410.333 1411.239 1412.26 1413.405 1414.521 1415.597 1416.545 1417.523 1418.557 1419.658 1420.712 1420.126 1420.628 1420.89 1421.007 1421.561 1420.439 1418.387 1417.368 1416.713 1416.446 1415.737 1415.106 1415.683 1417.639 1418.081 1418.936 1419.148 1418.701 1418.796 1418.634 1419.688 1421.947 1424.441 1425.36 1425.603 1426.331 1426.257 1426.782 1431.075 1434.747 1438.908 1443.879 1449.087 1453.871 1454.133 1453.025 1451.976
1358.604 1358.06 1357.173 1355.922 1355.407 1355.452 1355.658 1355.059 1352.763 1349.686 1348.092 1347.057 1346.859 1347.066 1347.817 1348.226 1349.807 1353.604 1359.028 1364.401 1370.193 1375.741 1380.354 1383.663 1386.152 1389.705 1393.575 1398.234 1402.296 1400.161 1393.158 1386.064 1376.235 1372.376 1376.023 1382.977 1388.895 1389.486 1386.009 1379.193 1371.174 1370.111 1371.028 1370.501 1367.567 1369.227 1378.168 1386.341 1391.408 1393.097 1387.506 1377.874 1367.912 1359.963 1356.21 1353.397 1351.501 1349.801 1348.338 1347.726 1347.672 1347.73 1348.203 1349.869 1352.669 1355.745 1357.646 1359.395 1358.92 1360.008 1358.319 1357.395 1356.88 1356.078 1355.059 1354.771 1354.675 1354.68 1355.078 1356.235 1357.573 1359.387 1360.707 1362.59 1364.171 1367.75 1371.202 1371.073 1367.825 1365.211 1364.832 1365.445 1365.689 1366.129 1369.255 1372.536 1374.395 1375.015 1375.538 1374.599 1371.924 1368.497 1370.424 1374.663 1376.625 1376.391 1375.579 1373.904 1372.753 1373.741 1374.619 1373.63 1373.209 1374.515 1377.537 1380.599 1383.404 1385.868 1388.873 1392.52 1396.018 1399.103 1402.413 1404.972 1407.233 1409.01 1411.579 1414.784 1417.452 1418.453 1416.13 1412.174 1408.566 1407.467 1406.692 1405.421 1403.79 1401.876 1398.979 1396.567 1396.196 1396.521 1396.144 1395.262 1395.068 1396.584 1398.338 1400.311 1401.823 1402.93 1403.904 1404.562 1404.12 1403.21 1402.708 1403.372 1403.646 1402.894 1401.216 1398.773 1396.397 1395.924 1396.764 1397.486 1397.038 1396.272 1396.408 1396.846 1396.715 1396.831 1397.428 1397.359 1397.262 1396.65 1396.083 1394.199 1391.035 1388.225 1384.353 1381.083 1380.308 1382.014 1385.812 1388.647 1389.265 1388.694 1388.448 1387.572 1384.794 1381.361 1374.554 1373.934 1375.788 1380.258 1385.542 1392.483 1397.128 1400.318 1403.017 1405 1406.792 1408.392 1409.51 1409.043 1405.528 1402.246 1396.417 1390.961 1388.177 1387.271 1387.028 1389.785 1393.771 1397.202 1399.467 1401.546 1403.238 1403.645 1403.695 1401.222 1393.24 1383.35 1375.835 1371.653 1370.271 1370.077 1370.473 1370.208 1370.5 1371.297 1372.011 1372.86 1373.566 1373.867 1373.971 1373.798 1373.076 1372.231 1372.507 1374.064 1377.291 1380.058 1382.704 1384.97 1385.296 1383.408 1382.112 1383.104 1386.236 1390.047 1392.735 1393.068 1392.166 1391.55 1392.239 1393.573 1394.247 1394.401 1394.398 1394.564 1394.644 1394.651 1395.331 1395.741 1396.3 1396.479 1395.671 1395.86 1396.475 1396.789 1396.881 1396.827 1397.178 1397.75 1398.751 1399.382 1400.811 1402.456 1403.464 1403.853 1404.469 1405.396 1405.433 1406.36 1407.471 1408.996 1410.276 1411.325 1412.348 1413.418 1414.505 1415.554 1416.425 1416.941 1417.561 1418.553 1419.642 1419.956 1419.882 1420.493 1420.703 1420.668 1420.243 1418.527 1414.006 1411.509 1412.622 1413.307 1413.363 1413.707 1414.688 1415.85 1416.133 1416.969 1417.313 1417.653 1418 1418.265 1420.26 1422.638 1424.678 1425.861 1426.395 1427.665 1431.769 1435.906 1439.072 1442.881 1446.618 1450.895 1455.61 1460.094 1460.228 1459.489 1458.16
1357.124 1356.932 1356.151 1355.227 1353.65 1353.04 1353.006 1352.378 1350.94 1348.976 1347.745 1346.987 1346.962 1348.069 1349.466 1349.878 1350.664 1354.285 1358.713 1362.71 1367.803 1372.496 1375.201 1376.393 1378.376 1382.011 1388.191 1396.08 1402.948 1404.464 1399.754 1392.947 1385.314 1378.665 1377.169 1382.049 1388.749 1391.266 1387.56 1380.997 1373.553 1376.161 1377.712 1374.683 1371.529 1372.401 1379.917 1387.628 1392.293 1391.451 1384.849 1375.821 1366.987 1359.269 1356.126 1353.889 1351.711 1350.104 1349.022 1348.101 1347.861 1348.598 1348.944 1350.066 1352.151 1354.926 1357.285 1358.775 1359.646 1360.769 1361.125 1360.05 1358.308 1357.029 1355.966 1355.732 1354.987 1355.425 1355.759 1356.484 1357.547 1358.654 1360.588 1362.628 1364.766 1369.105 1372.333 1372.599 1369.856 1367.228 1365.213 1365.717 1366.441 1367.016 1369.064 1372.124 1373.634 1376.175 1377.157 1376.466 1374.272 1371.956 1371.903 1374.849 1378.634 1379.355 1379.261 1377.751 1376.199 1376.499 1376.781 1376.311 1376.599 1377.066 1378.021 1379.223 1381.175 1383.627 1387.65 1391.848 1395.518 1398.763 1402.248 1405.377 1408.403 1411.05 1413.989 1416.215 1417.685 1418.48 1418.015 1414.8 1410.601 1408.758 1407.232 1405.484 1403.84 1402.114 1399.868 1398.487 1397.724 1397.614 1396.877 1395.595 1395.137 1396.593 1398.313 1400.139 1401.56 1402.625 1403.628 1404.499 1404.526 1403.846 1403.661 1403.934 1403.633 1402.468 1400.682 1398.493 1396.568 1396.865 1398.926 1399.141 1398.342 1397.346 1397.097 1398.007 1397.828 1398.259 1397.968 1397.462 1396.579 1395.242 1393.315 1390.423 1387.877 1384.346 1381.396 1380.227 1381.141 1383.756 1386.505 1389.446 1389.855 1389.649 1388.884 1386.932 1384.439 1380.621 1374.341 1374.373 1379.4 1384.978 1390.234 1395.344 1398.366 1401.428 1403.578 1406.101 1408.522 1410.221 1410.729 1408.5 1405.274 1398.999 1392.679 1388.878 1388.111 1390.515 1392.565 1393.616 1397.717 1400.629 1402.799 1404.202 1405.155 1404.369 1403.879 1400.783 1391.316 1381.735 1375.084 1371.595 1370.766 1370.69 1370.781 1370.73 1371.08 1372.034 1373.381 1374.588 1375.337 1375.683 1375.17 1374.324 1373.198 1372.24 1372.63 1374.663 1379.061 1381.965 1384.741 1387.338 1388.96 1388.391 1387.443 1388.716 1391.389 1393.706 1395.208 1395.571 1395.093 1394.471 1394.484 1395.054 1395.563 1395.729 1395.712 1395.684 1395.662 1395.665 1395.974 1396.538 1397.025 1397.382 1396.974 1396.875 1397.489 1398.195 1398.525 1398.566 1398.807 1399.403 1400.871 1401.789 1401.84 1402.959 1404.297 1405.068 1405.92 1406.644 1407.222 1408.315 1408.903 1409.812 1410.74 1411.674 1412.641 1413.655 1414.71 1415.745 1416.635 1417.309 1417.785 1418.514 1419 1419 1419.653 1419.739 1419.645 1419.176 1417.776 1415.077 1410.748 1409.981 1410.264 1411.069 1411.36 1411.82 1412.79 1415.47 1415.859 1416.671 1417.397 1417.866 1418.591 1420.573 1423.064 1426.153 1427.234 1427.924 1429.325 1432.779 1437.197 1441.993 1446.198 1449.649 1453.207 1457.262 1461.662 1466.203 1467.23 1465.718 1463.854
1356.318 1356.278 1355.99 1355.335 1353.156 1351.284 1350.67 1350.09 1349.422 1348.522 1347.777 1347.186 1347.203 1348.884 1351.315 1352.513 1352.421 1354.441 1357.329 1359.956 1363.775 1367.316 1369.104 1370.86 1373.868 1379.584 1387.878 1397.796 1405.927 1410.005 1408.226 1402.246 1394.327 1387.075 1381.522 1384.029 1390.914 1394.698 1390.552 1383.785 1377.34 1380.207 1380.811 1377.414 1377.07 1379.377 1384.331 1388.478 1390.057 1387.809 1382.088 1373.356 1363.256 1357.891 1356.191 1354.359 1352.373 1350.651 1349.736 1348.901 1348.008 1349.349 1350.344 1351.35 1352.662 1354.8 1356.696 1357.838 1360.415 1361.668 1362.668 1362.647 1360.791 1357.808 1356.763 1355.944 1355.713 1355.767 1355.94 1356.5 1356.949 1358.389 1361.368 1362.739 1364.724 1368.186 1372.066 1373.656 1371.595 1372.351 1368.884 1367.193 1368.034 1369.16 1369.924 1371.399 1372.717 1376.054 1378.275 1377.834 1375.752 1373.382 1372.305 1374.84 1379.043 1381.092 1381.443 1380.704 1379.741 1379.542 1379.048 1378.12 1379.642 1381.042 1380.982 1379.756 1379.776 1380.863 1385.002 1389.709 1393.292 1396.327 1399.542 1402.581 1405.218 1408.203 1410.446 1411.982 1414.351 1416.671 1417.159 1414.632 1410.957 1409.093 1407.374 1405.807 1404.35 1402.807 1401.219 1400.515 1399.638 1398.732 1397.777 1396.297 1395.352 1396.648 1398.519 1400.801 1401.923 1402.693 1403.633 1404.553 1404.941 1404.728 1404.662 1404.53 1403.569 1402.268 1400.602 1399.1 1398.268 1399.965 1401.751 1401.262 1400.29 1399.448 1399.131 1399.535 1399.421 1398.969 1397.935 1396.877 1395.368 1393.076 1389.824 1388.306 1386.64 1382.531 1380.465 1380.106 1381.422 1384.73 1387.38 1390.498 1390.296 1390.162 1388.712 1386.474 1383.786 1378.991 1374.165 1376.722 1383.149 1388.798 1393.507 1395.811 1397.571 1401.467 1405.04 1407.758 1409.861 1410.785 1410.798 1407.008 1400.146 1394.419 1391.603 1390.546 1391.771 1395.27 1398.22 1399.364 1401.862 1403.774 1404.999 1405.151 1404.916 1404.778 1404.077 1402.666 1392.524 1382.396 1375.041 1371.867 1371.092 1370.854 1370.959 1371.264 1372.317 1374.405 1377.314 1378.559 1377.248 1377.405 1377.317 1375.95 1373.751 1372.221 1372.396 1374.358 1380.047 1383.298 1385.861 1388.074 1389.879 1391.094 1391.694 1392.775 1394.694 1395.948 1396.61 1396.964 1396.698 1396.428 1396.25 1396.113 1396.507 1396.726 1396.717 1396.695 1396.676 1396.675 1396.715 1397.408 1397.843 1398.418 1398.885 1398.886 1398.831 1399.611 1400.22 1400.144 1400.315 1401.023 1402.271 1403.339 1403.381 1404.356 1405.65 1406.785 1407.601 1408.207 1409.056 1410.114 1410.423 1410.775 1411.4 1412.31 1413.288 1413.794 1414.7 1415.734 1416.514 1416.991 1417.507 1417.955 1418.06 1418.022 1418.74 1418.138 1417.791 1417.158 1415.17 1412.074 1410.037 1409.916 1410.691 1411.052 1410.908 1411.02 1413.025 1415.544 1416.611 1417.527 1418.854 1420.111 1421.834 1423.701 1425.978 1427.503 1429.302 1430.512 1432.312 1435.528 1440.68 1446.788 1450.755 1455.04 1459.108 1462.682 1465.944 1469.165 1470.13 1470.771 1471.968
1356.752 1356.78 1356.69 1356.072 1354.067 1351.149 1349.999 1349.485 1349.043 1348.6 1348.059 1347.792 1347.711 1349.284 1352.895 1355.703 1355.892 1356.409 1357.633 1359.472 1361.739 1364.312 1366.604 1370.994 1376.302 1383.717 1392.044 1401.861 1410.062 1415.335 1416.125 1410.318 1402.538 1394.389 1387.105 1387.825 1394.166 1398.675 1395.044 1388.689 1381.926 1384.049 1383.698 1381.304 1383.142 1386.468 1388.14 1389.128 1386.983 1382.834 1377.643 1370.843 1363.278 1358.394 1357.294 1355.553 1353.395 1351.495 1350.552 1349.367 1348.096 1348.979 1350.623 1351.735 1353.191 1355.108 1357.099 1358.437 1360.584 1362.441 1364.057 1364.785 1363.479 1359.896 1357.913 1356.863 1356.044 1355.847 1355.954 1356.524 1357.452 1359.259 1362.329 1364.366 1364.792 1366.172 1370.356 1374.08 1374.695 1375.52 1373.598 1370.883 1370.898 1371.454 1371.661 1371.205 1372.489 1373.143 1379.656 1380.216 1377.953 1373.961 1372.07 1374.222 1378.815 1381.255 1382.197 1382.26 1381.843 1381.593 1381.072 1379.889 1380.701 1384.3 1385.474 1383.129 1380.32 1379.708 1381.198 1385.917 1389.487 1391.972 1394.277 1396.824 1399.26 1401.516 1403.597 1405.855 1410.026 1413.747 1414.662 1412.397 1410.32 1409.057 1407.515 1406.1 1404.805 1403.484 1402.376 1401.856 1400.84 1399.6 1398.878 1397.75 1396.38 1397.162 1399.288 1401.913 1402.673 1403.05 1403.828 1404.766 1405.372 1405.491 1405.503 1404.979 1403.825 1402.687 1401.298 1400.467 1400.722 1402.687 1403.319 1402.211 1401.288 1400.879 1401.096 1401.173 1400.686 1399.153 1397.446 1395.887 1394.15 1391.004 1388.666 1389.447 1389.234 1385.416 1381.871 1380.529 1382.546 1386.98 1389.874 1392.329 1391.713 1390.246 1387.935 1385.559 1382.818 1375.96 1374.011 1379.067 1384.265 1388.451 1391.825 1393.811 1395.708 1402.061 1405.482 1408.682 1410.46 1411.291 1410.467 1405.317 1396.338 1396.337 1395.74 1395.483 1395.365 1398.676 1403.72 1404.538 1405.234 1405.533 1405.754 1405.694 1405.183 1404.854 1404.802 1404.396 1395.641 1386.063 1377.775 1373.29 1371.48 1370.963 1371.645 1373.182 1374.591 1377.78 1379.882 1379.611 1378.459 1378.609 1379.358 1378.23 1375.059 1372.465 1372.055 1372.894 1379.692 1383.796 1386.279 1388.309 1389.92 1391.566 1392.91 1394.227 1395.543 1396.583 1397.24 1397.561 1397.218 1397.312 1397.039 1396.774 1397.154 1397.461 1397.526 1397.516 1397.505 1397.504 1397.661 1398.31 1398.888 1399.564 1400.409 1400.756 1400.535 1401.15 1401.73 1401.72 1401.704 1401.982 1402.778 1403.977 1404.661 1406.185 1407.451 1408.508 1409.235 1409.677 1410.399 1410.914 1411.537 1411.779 1412.004 1412.609 1413.512 1413.83 1414.629 1415.51 1415.872 1416.341 1416.762 1416.966 1417.038 1416.989 1417.049 1416.196 1415.676 1414.71 1412.837 1410.573 1409.873 1410.653 1411.775 1413.184 1414.326 1415.567 1416.999 1417.582 1418.519 1419.304 1420.848 1422.712 1424.816 1426.617 1427.358 1428.51 1430.407 1431.799 1433.664 1437.199 1442.625 1448.242 1453.917 1459.215 1462.758 1464.439 1466.449 1469.782 1471.299 1473.958 1478.056
1357.732 1357.654 1357.404 1356.854 1355.216 1352.482 1350.942 1350.256 1349.659 1348.921 1348.148 1348.243 1348.232 1349.771 1353.845 1357.533 1358.768 1358.905 1359.666 1361.507 1363.598 1366.045 1369.43 1375.557 1381.686 1388.887 1396.931 1405.909 1414.1 1419.775 1421.662 1416.782 1410.413 1401.289 1393.101 1392.176 1398.061 1403.597 1400.865 1394.009 1387.768 1389.84 1388.324 1386.451 1389.001 1391.952 1390.31 1387.562 1382.503 1377.169 1372.046 1366.967 1362.423 1358.636 1357.318 1356.103 1354.263 1352.423 1351.133 1349.936 1348.8 1349.397 1350.578 1351.604 1353.189 1355.158 1357.211 1358.607 1359.881 1362.262 1363.599 1364.575 1364.576 1362.425 1359.963 1357.959 1356.926 1356.761 1356.383 1356.613 1358.074 1360.22 1363.297 1366.255 1367.386 1366.614 1369.165 1374.118 1377.81 1379.418 1377.578 1373.493 1372.628 1373.111 1373.011 1372.12 1372.652 1372.854 1379.854 1381.008 1379.358 1375.203 1372.308 1374.115 1377.402 1379.771 1381.007 1381.72 1382.269 1382.641 1382.825 1381.574 1381.664 1385.834 1388.287 1386.868 1383.733 1382.215 1380.265 1382.168 1385.352 1387.571 1389.396 1392.433 1395.733 1398.038 1401.384 1404.549 1408.977 1412.193 1412.449 1410.723 1409.639 1408.978 1407.839 1406.409 1405.126 1404.031 1403.029 1402.475 1401.25 1400.538 1400.414 1400.153 1398.985 1398.766 1400.316 1402.506 1403.519 1403.836 1404.511 1405.416 1405.911 1405.911 1405.974 1405.131 1403.942 1402.982 1402.007 1401.714 1402.384 1403.674 1403.379 1402.316 1401.82 1401.696 1402.165 1402.009 1401.18 1399.36 1397.257 1396.042 1395.421 1393.974 1393.856 1394.644 1391.879 1387.102 1382.404 1380.82 1384.331 1389.847 1392.794 1394.349 1392.844 1390.325 1387.458 1384.282 1381.048 1375.158 1376.896 1381.214 1384.617 1387.31 1388.958 1392.342 1396.122 1401.428 1405.298 1408.273 1410.274 1411.331 1409.874 1404.316 1400.603 1400.862 1400.627 1400.186 1400.72 1403.964 1406.461 1406.719 1405.897 1405.852 1405.854 1405.832 1405.757 1405.091 1404.824 1403.324 1398.91 1391.94 1384.48 1377.911 1373.54 1372.644 1373.415 1376.546 1378.839 1380.347 1380.546 1379.429 1379.465 1379.727 1381.058 1380.409 1377.692 1373.857 1371.987 1372.111 1378.705 1383.261 1386.06 1388.125 1389.676 1391.334 1392.656 1394.231 1395.45 1396.532 1397.212 1397.455 1397.185 1397.394 1397.22 1397.413 1397.458 1397.687 1397.854 1397.854 1397.879 1397.993 1398.4 1398.967 1399.782 1400.606 1401.481 1402.173 1402.312 1402.615 1403.073 1403.292 1403.051 1402.768 1403.04 1403.993 1405.832 1407.919 1409.225 1410.11 1410.635 1411.072 1411.496 1411.644 1412.366 1412.573 1412.603 1412.792 1413.154 1413.658 1414.017 1414.274 1414.758 1415.071 1415.167 1415.279 1415.351 1415.276 1415.116 1414.17 1413.303 1412.364 1410.856 1409.381 1409.733 1411.433 1412.667 1414.807 1416.819 1418.183 1419.261 1419.55 1420.402 1421.383 1423.067 1424.763 1426.381 1427.74 1428.332 1429.459 1430.738 1432.535 1434.603 1437.677 1442.67 1448.395 1453.521 1457.832 1460.843 1462.548 1463.853 1466.287 1469.198 1472.602 1476.49
1358.509 1357.935 1357.054 1356.75 1355.748 1353.818 1352.082 1350.757 1349.876 1349.014 1348.291 1348.096 1348.709 1350.57 1354.209 1357.435 1359.244 1359.937 1361.625 1364.048 1366.772 1369.913 1374.018 1379.803 1384.887 1392.108 1400.043 1408.528 1416.7 1422.729 1424.585 1422.288 1417.537 1409.022 1400.216 1397.208 1402.813 1409.506 1407.468 1400.462 1397.027 1397.726 1393.864 1391.567 1393.99 1395.133 1391.069 1383.933 1379.058 1374.899 1370.351 1366.243 1362.758 1359.005 1358.156 1356.953 1355.174 1353.365 1351.859 1350.364 1349.148 1349.123 1349.889 1350.844 1352.558 1354.821 1356.674 1357.832 1358.904 1360.211 1362.259 1363.941 1364.695 1364.389 1362.138 1359.108 1357.98 1357.787 1357.152 1356.997 1358.238 1360.962 1364.26 1368.941 1372.224 1371.51 1371.689 1373.912 1378.413 1380.599 1379.709 1374.824 1373.231 1374.008 1375.162 1374.967 1373.982 1372.953 1378.792 1381.113 1380.103 1376.96 1373.187 1373.458 1376.419 1378.657 1379.837 1380.359 1381.022 1382.484 1384.376 1385.43 1386.245 1389.536 1392.321 1390.819 1388.088 1386.65 1383.872 1381.921 1383.771 1385.775 1387.76 1391.059 1395.722 1400.151 1404.85 1407.483 1410.138 1411.849 1411.507 1410.274 1409.729 1409.021 1408.195 1406.977 1405.488 1404.208 1403.066 1402.35 1401.503 1401.604 1401.948 1402.335 1401.926 1401.027 1401.376 1403.03 1404.252 1404.791 1405.621 1406.448 1406.637 1406.357 1406.562 1405.313 1403.649 1402.871 1402.376 1402.501 1403.41 1404.196 1403.227 1402.643 1402.59 1402.342 1402.586 1402.596 1401.864 1400.163 1397.786 1397.426 1397.992 1397.876 1397.479 1396.901 1391.947 1386.149 1381.633 1380.771 1385.414 1391.864 1395.462 1395.675 1393.166 1389.852 1386.663 1382.932 1379.296 1377.849 1379.92 1383.148 1386.406 1388.582 1390.605 1394.68 1398.015 1400.748 1404.589 1408.129 1410.827 1412.281 1411.889 1409.614 1408.719 1409.095 1408.671 1408.514 1409.081 1410.035 1409.143 1407.12 1406.75 1406.033 1405.854 1405.805 1405.258 1404.848 1404.042 1403.774 1400.899 1396.537 1391.259 1385.768 1382.16 1381.353 1381.662 1384.004 1382.878 1381.357 1380.217 1379.312 1379.72 1380.862 1382.198 1381.829 1379.972 1375.778 1372.444 1372.338 1377.513 1382.156 1385.28 1387.553 1389.316 1390.842 1392.057 1393.508 1394.746 1396.21 1397.02 1397.107 1396.861 1397.017 1397.303 1397.722 1397.652 1397.621 1397.687 1397.795 1397.915 1398.2 1398.581 1399.191 1400.062 1401.172 1402.201 1403.11 1403.446 1403.51 1403.928 1404.362 1404.406 1404.139 1404.085 1404.662 1407.043 1409.099 1410.331 1411.224 1411.667 1411.939 1412.357 1412.511 1412.788 1412.854 1412.854 1412.884 1413.153 1413.172 1413.079 1413.052 1413.586 1413.725 1413.519 1413.756 1414.015 1413.426 1413.164 1412.191 1411.233 1410.423 1409.449 1408.922 1409.69 1410.893 1412.581 1414.913 1417.366 1418.727 1419.547 1419.164 1419.89 1420.956 1422.983 1424.988 1426.528 1427.83 1428.397 1429.528 1430.778 1432.674 1434.767 1437.678 1442.027 1446.826 1451.05 1453.774 1455.914 1457.887 1459.444 1461.383 1464.793 1467.868 1471.281
1358.689 1357.66 1356.44 1356.196 1355.444 1354.4 1353.1 1351.596 1350.352 1349.294 1348.751 1348.178 1349.126 1350.973 1353.769 1356.364 1358.355 1359.737 1362.094 1365.133 1368.032 1371.62 1376.158 1381.532 1386.066 1392.837 1400.465 1408.626 1416.229 1422.667 1424.812 1424.364 1421.585 1415.724 1408.804 1405.116 1409.843 1416.523 1414.99 1409.716 1408.317 1406.31 1400.445 1397.334 1398.662 1397.627 1392.339 1382.888 1378.779 1376.813 1374.075 1371.02 1367.563 1364.715 1361.721 1358.352 1356.069 1354.254 1352.559 1350.98 1349.821 1349.063 1349.246 1350.232 1352.279 1354.527 1355.973 1356.933 1357.941 1358.271 1360.476 1362.45 1363.776 1364.563 1363.753 1360.93 1359.706 1358.864 1357.692 1357.509 1359.006 1361.276 1363.69 1367.836 1372.293 1375.469 1375.155 1373.082 1379.545 1381.878 1380.802 1376.336 1373.811 1374.798 1377.394 1378.525 1376.297 1373.176 1378.049 1381.034 1381.31 1379.434 1375.967 1374.107 1375.64 1378.423 1380.157 1380.774 1381.561 1383.334 1385.918 1388.181 1391.319 1393.907 1394.816 1394.207 1393.363 1392.213 1389.733 1385.817 1385.582 1386.817 1388.036 1390.328 1395.018 1399.594 1404.439 1407.796 1410.124 1411.265 1411.355 1410.748 1410.051 1409.241 1408.769 1407.856 1406.384 1404.921 1403.367 1402.346 1402.219 1402.76 1403.28 1403.601 1403.439 1402.607 1402.437 1403.493 1404.748 1405.781 1406.942 1407.604 1407.64 1407.325 1407.305 1405.478 1403.565 1402.909 1402.822 1403.192 1404.195 1404.415 1403.36 1403.189 1403.321 1402.93 1402.909 1403.316 1402.836 1401.606 1400.069 1400.294 1400.738 1399.917 1398.053 1395.979 1390.581 1384.67 1380.962 1380.794 1386.08 1393.016 1396.37 1396.003 1393.356 1389.816 1386.653 1383.055 1380.032 1379.584 1380.138 1384.128 1387.127 1389.633 1392.03 1394.543 1398.039 1401.33 1404.626 1408.247 1410.986 1412.463 1412.754 1412.494 1412.435 1412.484 1412.194 1412.165 1412.229 1411.391 1410.033 1407.298 1406.838 1404.832 1404.298 1404.156 1403.444 1402.952 1402.128 1401.254 1399.455 1396.317 1393.934 1390.361 1387.704 1386.056 1386.954 1386.512 1384.312 1381.7 1380.209 1379.977 1380.764 1383.151 1383.045 1382.575 1380.886 1377.064 1372.98 1371.954 1376.573 1381.118 1384.438 1386.967 1388.795 1390.301 1391.102 1392.214 1393.27 1394.928 1395.961 1396.414 1396.35 1396.596 1396.997 1397.536 1397.629 1397.336 1397.228 1397.507 1397.693 1397.883 1397.98 1398.587 1399.443 1400.709 1401.749 1402.648 1403.272 1403.602 1404.161 1404.762 1405.35 1405.779 1406.132 1406.694 1408.262 1409.723 1410.724 1411.696 1412.354 1412.525 1412.759 1412.851 1412.741 1412.671 1412.669 1412.635 1412.467 1412.184 1412.077 1412.034 1412.07 1412.026 1411.962 1412.138 1412.289 1411.503 1411.196 1410.203 1409.214 1408.817 1408.421 1408.653 1409.638 1410.037 1411.642 1413.406 1415.696 1417.539 1418.688 1418.852 1419.621 1420.445 1421.526 1423.177 1424.723 1426.071 1427.331 1428.591 1430.526 1432.694 1434.699 1437.115 1440.478 1444.974 1448.41 1450.163 1452.35 1454.163 1455.732 1456.074 1457.623 1461.305 1465.712
1358.872 1358.088 1357.081 1356.729 1356.117 1355.572 1354.754 1353.685 1352.271 1350.364 1349.245 1348.74 1349.002 1350.151 1352.267 1354.722 1356.996 1358.742 1361.743 1364.965 1368.009 1371.427 1375.822 1381.117 1385.524 1391.641 1398.552 1406.073 1413.053 1419.239 1422.042 1422.118 1420.727 1418.927 1417.358 1416.486 1420.181 1425.228 1423.995 1420.913 1419.187 1414.962 1408.713 1405.317 1405.271 1401.951 1394.568 1384.757 1382.542 1382.248 1380.197 1377.301 1373.945 1371.422 1365.227 1359.824 1356.811 1355.182 1353.796 1351.972 1350.297 1349.612 1349.689 1350.746 1352.995 1355.509 1357.055 1357.542 1357.271 1357.194 1358.988 1361.184 1363.144 1364.485 1364.642 1362.763 1360.997 1359.916 1358.438 1357.597 1358.995 1361.922 1365.045 1368.558 1372.688 1377.03 1379.597 1378.031 1379.078 1380.848 1380.111 1377.08 1374.225 1375.477 1378.58 1380.338 1379.039 1375.095 1378.234 1381.176 1382.832 1383.66 1382.268 1379.31 1377.789 1378.654 1380.383 1381.557 1382.968 1384.513 1385.616 1388.296 1392.699 1394.786 1395.976 1396.334 1395.805 1394.216 1391.946 1388.239 1388.603 1390.212 1389.898 1389.766 1393.073 1395.343 1399.517 1402.84 1406.447 1409.44 1410.75 1410.543 1410.173 1409.86 1409.804 1409.057 1407.747 1406.195 1404.399 1403.422 1403.356 1404.177 1404.623 1404.642 1404.148 1403.303 1402.915 1403.582 1405.267 1406.871 1408.221 1408.723 1408.629 1408.261 1407.601 1405.794 1404.256 1403.563 1403.771 1404.41 1404.994 1404.808 1404.086 1404.105 1403.989 1403.469 1403.484 1403.779 1403.579 1402.851 1401.636 1401.409 1401.949 1400.715 1397.651 1394.824 1389.909 1384.382 1381.015 1380.898 1386.286 1393.608 1396.49 1396.079 1394.558 1391.86 1388.42 1383.421 1380.304 1380.981 1381.495 1385.256 1387.342 1389.761 1392.675 1395.562 1398.265 1402.12 1405.342 1408.894 1411.23 1412.472 1412.854 1412.856 1413.566 1413.626 1412.963 1412.703 1412.134 1411.181 1409.476 1407.192 1405.284 1403.541 1402.566 1402.207 1401.495 1400.993 1400.152 1398.385 1397.345 1395.365 1393.046 1390.529 1388.388 1387.783 1386.969 1386.041 1384.18 1381.571 1380.705 1381.72 1383.387 1385.314 1384.703 1383.117 1381.105 1377.665 1373.278 1371.946 1375.913 1380.297 1383.916 1386.382 1388.223 1389.6 1390.39 1390.176 1390.432 1391.892 1393.313 1394.689 1395.468 1395.885 1396.469 1396.859 1396.945 1396.778 1396.711 1396.888 1397.095 1397.149 1397.011 1397.121 1397.92 1399.048 1400.033 1401.134 1402.02 1402.795 1403.731 1404.567 1405.63 1406.934 1408.11 1408.698 1409.47 1410.448 1411.079 1411.96 1412.678 1412.829 1412.759 1412.608 1412.138 1411.982 1411.948 1411.793 1411.281 1410.992 1410.953 1410.884 1410.298 1410.063 1410.12 1410.231 1410.276 1409.529 1409.153 1407.954 1406.728 1406.916 1407.704 1408.167 1409.02 1409.851 1410.415 1411.253 1412.83 1414.864 1416.26 1417.144 1418.092 1418.3 1419.085 1420.475 1421.925 1423.805 1426.112 1427.568 1429.535 1431.427 1433.493 1436.119 1439.435 1442.6 1444.891 1447.133 1449.473 1451.137 1452.472 1453.546 1454.249 1455.629 1459.024
1359.993 1359.074 1358.054 1357.194 1357.55 1356.811 1356.478 1356.059 1354.91 1351.907 1349.992 1349.036 1348.864 1349.17 1350.49 1353.329 1356.466 1358.419 1361.075 1364.252 1367.164 1370.288 1374.307 1379.503 1383.614 1389.152 1395.621 1402.305 1408.397 1413.219 1415.366 1415.266 1415.469 1418.671 1423.055 1427.014 1431.278 1435.163 1435.264 1433.708 1430.297 1424.73 1419.26 1416.122 1413.886 1407.279 1397.235 1389.312 1389.309 1388.153 1384.509 1380.356 1376.612 1373.52 1367.301 1361.543 1358.002 1356.477 1355.332 1352.841 1350.549 1349.916 1350.527 1351.811 1353.981 1356.593 1358.385 1358.72 1357.914 1357.099 1358.543 1360.517 1362.486 1364.279 1364.857 1363.854 1362.632 1361.144 1359.618 1358.547 1359.797 1363.396 1366.903 1371.538 1374.101 1377.462 1379.732 1379.804 1379.749 1381.356 1380.846 1378.222 1375.586 1376.792 1380.107 1382.26 1381.783 1380.29 1379.633 1381.199 1384.897 1387.637 1385.771 1380.917 1378.921 1378.87 1380.497 1382.237 1384.026 1385.476 1385.876 1387.559 1390.659 1394.702 1396.271 1396.378 1396.42 1395.708 1390.988 1388.499 1391.818 1393.454 1393.834 1392.708 1392.314 1393.711 1395.311 1398 1401.103 1404.723 1407.757 1408.719 1410.043 1410.733 1411.247 1410.599 1409.205 1407.909 1406.445 1405.938 1405.835 1405.844 1405.907 1405.785 1405.12 1403.999 1403.134 1403.444 1405.677 1407.653 1409.17 1409.733 1409.609 1408.956 1408.024 1406.891 1405.967 1405.365 1405.592 1406.189 1406.231 1405.747 1405.258 1404.94 1404.55 1404.064 1404.073 1403.967 1403.854 1403.465 1400.772 1398.829 1400.149 1399.826 1396.531 1393.74 1389.72 1385.179 1381.653 1381.095 1386.087 1393.068 1396.37 1396.679 1395.79 1393.507 1389.327 1383.153 1380.126 1381.899 1384.389 1387.179 1389.342 1391.819 1394.1 1395.869 1398.774 1402.407 1405.595 1409.11 1411.317 1412.532 1412.883 1412.862 1413.017 1413.055 1412.918 1412.588 1411.567 1410.32 1409.16 1407.177 1405.056 1403.167 1401.481 1400.052 1398.703 1398.137 1397.268 1395.446 1394.518 1392.788 1390.392 1387.967 1386.968 1386.892 1386.078 1385.204 1385.166 1384.062 1384.089 1385.407 1386.554 1386.754 1385.778 1383.447 1381.029 1377.372 1373.167 1372.51 1375.892 1380.01 1383.175 1385.403 1387.219 1388.486 1388.67 1388.115 1388.247 1388.765 1389.587 1391.215 1393.328 1394.781 1395.632 1396.071 1396.135 1396.147 1396.164 1396.301 1396.559 1396.513 1396.087 1395.668 1396.12 1396.933 1397.84 1399.26 1400.782 1402.078 1403.002 1404.145 1405.655 1407.592 1409.238 1409.952 1410.414 1411.245 1411.592 1412.016 1412.505 1412.599 1412.263 1411.604 1410.971 1410.805 1410.708 1410.316 1409.845 1409.429 1409.301 1409.126 1408.225 1407.925 1408.068 1408.227 1408.263 1407.552 1406.605 1404.977 1404.188 1405.417 1407.447 1408.994 1410.138 1410.76 1411.134 1411.332 1412.027 1413.988 1415.642 1416.667 1417.093 1417.188 1417.856 1418.468 1419.186 1420.488 1423.887 1426.444 1427.841 1429.073 1430.802 1433.158 1436.035 1439.573 1441.949 1444.305 1446.655 1448.07 1448.946 1449.948 1451.168 1452.901 1455.778
1361.712 1360.41 1359.155 1358.216 1358.555 1357.448 1357.383 1356.985 1355.612 1352.671 1350.366 1349.222 1348.994 1348.93 1349.733 1353.028 1356.772 1358.715 1360.41 1363.112 1365.627 1368.523 1372.222 1376.98 1381.008 1385.61 1391.975 1398.017 1402.609 1405.413 1406.104 1406.766 1409.183 1416.585 1424.655 1432.253 1438.522 1443.651 1446.389 1446.231 1442.35 1436.513 1431.224 1426.892 1421.295 1411.734 1401.836 1396.735 1395.316 1390.71 1384.956 1379.403 1374.9 1372.021 1367.221 1362.86 1359.604 1357.781 1356.368 1353.888 1351.324 1350.058 1351.227 1353.03 1354.769 1357.018 1359.666 1360.86 1359.757 1357.615 1358.771 1360.519 1362.308 1364.162 1365.314 1364.779 1363.891 1362.851 1361.758 1360.571 1361.084 1363.955 1367.226 1370.796 1373.182 1377.181 1380.065 1381.203 1380.958 1381.628 1381.746 1379.941 1378.267 1378.72 1381.305 1384.018 1385.214 1382.859 1380.201 1381.302 1385.748 1388.113 1386.396 1382.669 1380.816 1379.832 1380.789 1382.966 1385.504 1387.326 1387.785 1387.826 1388.145 1391.797 1394.506 1396.096 1396.711 1395.153 1389.773 1390.601 1393.215 1395.755 1396.614 1394.814 1393.779 1394.644 1395.013 1395.642 1397.059 1400.19 1402.704 1404.759 1408.65 1411.298 1412.413 1411.944 1410.667 1409.966 1408.981 1408.962 1408.941 1407.934 1407.608 1407.503 1406.909 1405.557 1404.032 1403.368 1405.454 1408.071 1409.961 1410.648 1410.503 1409.782 1409.011 1408.49 1408.284 1408.077 1407.988 1407.791 1407.37 1406.461 1405.909 1405.264 1404.861 1404.488 1404.227 1404.044 1403.907 1403.254 1399.168 1395.849 1395.993 1396.161 1394.112 1391.76 1388.982 1385.283 1381.889 1381.862 1387.063 1393.765 1397.029 1397.625 1396.669 1393.687 1388.944 1382.798 1380.412 1382.226 1385.879 1388.901 1391.684 1394.296 1396.087 1397.275 1400.29 1403.211 1406.177 1409.124 1411.22 1412.747 1413.097 1413.409 1412.976 1413.543 1412.931 1412.139 1411.115 1410.067 1408.505 1406.341 1404.892 1402.978 1401.002 1398.128 1395.818 1395.831 1395.241 1393.359 1391.026 1389.203 1387.783 1386.982 1386.844 1386.108 1386.682 1386.666 1387.131 1387.306 1388.016 1389.299 1389.752 1388.087 1386.046 1383.431 1380.567 1376.982 1373.153 1372.513 1375.149 1379.139 1381.753 1383.708 1385.442 1386.531 1386.286 1386.299 1387.615 1387.963 1388.185 1389.13 1391.517 1393.756 1394.799 1395.558 1395.694 1395.694 1395.751 1396.026 1395.943 1395.523 1395.067 1394.781 1394.931 1395.343 1395.882 1397.559 1400.458 1402.409 1403.031 1404.312 1405.85 1407.968 1409.562 1410.343 1410.643 1411.381 1411.674 1411.824 1412.045 1411.922 1411.243 1410.165 1409.349 1409.108 1408.859 1408.207 1407.57 1407.232 1407.13 1406.664 1405.715 1405.468 1405.879 1406.209 1406.231 1405.558 1403.98 1402.851 1403.309 1405.372 1408.045 1410.258 1411.979 1413.088 1414.628 1415.398 1415.784 1416.322 1416.71 1417.43 1417.693 1417.834 1417.979 1418.375 1418.676 1418.803 1420.742 1425.267 1426.837 1427.451 1428.775 1430.672 1433.087 1435.36 1437.307 1440.158 1442.462 1444.616 1446.754 1447.892 1449.399 1451.44 1453.423
1362.964 1361.94 1360.953 1360.007 1358.967 1358.499 1357.792 1356.804 1354.897 1352.522 1350.651 1350.033 1349.77 1349.244 1349.884 1352.713 1355.978 1357.538 1359.125 1361.606 1363.866 1366.398 1369.528 1373.809 1378.4 1381.95 1387.232 1392.688 1395.993 1397.276 1397.353 1400.08 1405.331 1414.092 1423.532 1432.657 1440.179 1447.19 1452.655 1454.196 1452.536 1447.728 1441.532 1435.085 1427.346 1417.279 1409.957 1404.306 1398.318 1390.732 1383.993 1378.236 1373.519 1370.514 1366.167 1363.366 1360.985 1358.765 1357.073 1354.833 1351.982 1350.363 1351.773 1354.116 1355.753 1357.342 1360.758 1363.27 1361.914 1359.705 1360.029 1361.239 1362.564 1363.807 1364.932 1365.501 1365.494 1364.789 1363.91 1362.893 1362.605 1363.707 1365.292 1369.447 1373.119 1376.835 1379.873 1381.867 1381.97 1382.44 1382.627 1381.008 1379.923 1379.952 1381.474 1385.636 1388.194 1385.85 1381.577 1380.946 1385.697 1388.661 1387.897 1385.316 1382.901 1381.672 1382.382 1384.167 1386.639 1389.001 1390.434 1389.885 1388.836 1390.115 1393.017 1395.319 1396.425 1394.735 1395.259 1396.102 1394.741 1399.186 1401.415 1397.078 1394.661 1396.308 1396.822 1397.514 1398.931 1400.804 1402.512 1403.202 1407.241 1411.222 1413.404 1413.65 1412.917 1412.045 1410.672 1410.697 1410.493 1409.857 1409.608 1409.566 1409.309 1408.288 1406.515 1404.908 1405.803 1408.608 1410.602 1411.313 1411.141 1410.543 1409.829 1409.546 1410.022 1410.136 1409.637 1408.766 1407.994 1407.1 1406.096 1405.303 1404.738 1404.176 1403.834 1403.963 1403.813 1402.459 1398.512 1394.659 1392.212 1391.151 1390.142 1388.683 1387.077 1384.063 1381.941 1384.523 1390.705 1396.136 1398.216 1398.423 1396.925 1393.166 1388.218 1382.569 1380.267 1382.01 1385.881 1389.136 1392.422 1395.125 1397.014 1398.715 1401.065 1403.413 1405.765 1408.44 1410.398 1411.759 1412.609 1413.016 1412.892 1413.048 1412.736 1411.823 1410.401 1408.721 1407.318 1405.379 1403.293 1401.743 1399.306 1396.801 1394.7 1394.056 1393.285 1392.152 1390.178 1387.85 1387.032 1387.373 1387.74 1387.735 1388.529 1389.359 1390.115 1391.386 1392.753 1393.481 1392.257 1389.25 1386.157 1383.286 1379.924 1376.188 1372.856 1371.942 1373.502 1377.253 1380.211 1381.881 1383.316 1383.993 1384.385 1386.349 1387.736 1388.44 1389.13 1390.077 1391.858 1393.493 1394.435 1394.839 1394.962 1394.994 1395.089 1395.124 1394.924 1394.744 1394.243 1394.266 1394.393 1394.808 1395.47 1397.76 1401.131 1403.219 1403.617 1404.833 1406.012 1407.643 1408.794 1409.33 1409.719 1410.519 1410.98 1411.427 1411.564 1410.924 1409.41 1408.048 1407.248 1407.064 1406.535 1405.669 1404.841 1404.621 1404.609 1404.273 1403.54 1403.491 1404.013 1404.359 1404.339 1403.686 1402.492 1402.827 1404.525 1406.977 1409.622 1411.877 1413.799 1415.707 1417.665 1418.422 1418.889 1419.123 1419.055 1418.746 1419.313 1419.517 1418.692 1418.504 1420.222 1423.233 1425.346 1426.934 1426.981 1427.457 1428.255 1430.091 1432.218 1433.312 1434.375 1438.793 1440.739 1443.19 1445.586 1447.965 1449.461 1450.7 1452.266
1364.215 1363.035 1362.021 1360.976 1359.097 1358.061 1357.14 1355.887 1354.82 1353.513 1352.286 1351.738 1350.884 1349.95 1350.063 1351.808 1354.509 1356.212 1357.276 1360.386 1362.661 1364.49 1366.574 1369.915 1374.114 1377.468 1381.718 1386.418 1389.112 1390.258 1391.367 1396.898 1404.152 1412.572 1421.148 1429.92 1437.613 1445.295 1452.552 1455.397 1456 1452.6 1446.589 1440.328 1433.164 1424.496 1418.488 1409.455 1399.771 1391.267 1384.581 1379.259 1374.649 1371.329 1366.865 1364.228 1362.003 1359.424 1357.314 1354.971 1352.475 1351.544 1352.873 1355.269 1357.916 1359.214 1361.589 1363.975 1363.979 1362.592 1362.343 1362.397 1363.093 1363.93 1364.857 1366.36 1367.38 1366.88 1366.167 1365.121 1364.082 1363.814 1364.072 1368.356 1372.765 1375.799 1378.715 1381.144 1382.388 1382.208 1382.11 1381.743 1380.462 1380.698 1382.351 1386.211 1389.271 1387.942 1384.863 1382.633 1385.845 1389.01 1389.049 1387.155 1384.889 1384.373 1384.971 1385.648 1387.372 1391.5 1395.638 1394.032 1393.248 1393.218 1394.162 1395.119 1396.699 1397.076 1398.368 1401.104 1396.638 1401.054 1403.831 1398.771 1395.723 1397.5 1399.488 1401.164 1403.901 1405.784 1406.837 1405.557 1407.151 1411.311 1415.001 1416.211 1416.104 1415.021 1413.27 1413.176 1413.028 1412.146 1411.784 1411.638 1411.443 1410.685 1409.307 1408.194 1407.54 1409.333 1411.094 1411.74 1411.691 1410.967 1410.28 1410.047 1410.619 1410.762 1410.198 1409.293 1408.513 1407.693 1405.984 1404.614 1403.97 1403.245 1402.659 1402.798 1402.74 1401.036 1397.889 1393.675 1390.081 1388.453 1387.812 1386.814 1385.763 1383.708 1383.774 1388.792 1395.42 1398.764 1399.049 1398.291 1396.21 1391.83 1387.066 1382.471 1380.215 1381.062 1384.581 1387.816 1391.093 1394.262 1396.439 1397.934 1400.281 1402.591 1405.246 1407.441 1409.259 1410.62 1411.721 1412.631 1412.832 1412.788 1412.032 1410.876 1409.177 1406.994 1405.449 1404.239 1401.431 1399.341 1397.251 1395.528 1394.25 1393.295 1392.211 1391.957 1391.009 1389.152 1388.933 1389.915 1391.04 1391.49 1391.495 1393.071 1394.353 1395.034 1395.431 1395.57 1393.544 1389.456 1385.388 1382.448 1378.944 1375.007 1372.544 1372.785 1372.135 1373.954 1376.942 1379.335 1380.805 1381.145 1381.006 1386.254 1388.355 1388.317 1389.333 1390.214 1391.392 1392.691 1393.61 1393.899 1393.962 1394.05 1394.305 1394.151 1393.918 1394.023 1393.928 1394.415 1394.902 1395.656 1396.926 1399.672 1402.177 1403.581 1403.89 1404.672 1405.495 1406.409 1406.794 1406.993 1407.799 1409.135 1409.919 1410.623 1410.696 1409.58 1407.055 1405.17 1404.973 1405.05 1404.325 1403.362 1402.608 1402.404 1402.41 1402.383 1402.24 1402.532 1402.877 1403.027 1403.024 1402.52 1402.656 1404.272 1406.738 1409.191 1411.264 1413.194 1415.04 1417.13 1418.625 1419.4 1419.921 1420.407 1420.665 1420.426 1421.233 1421.579 1420.859 1419.781 1421.091 1424.838 1427.609 1428.26 1428.479 1429.736 1431.288 1432.908 1434.105 1435.292 1437.047 1439.102 1441.71 1443.846 1445.855 1448.143 1449.526 1450.388 1451.58
1364.704 1363.964 1362.391 1360.321 1358.254 1357.205 1356.347 1355.929 1356.158 1355.922 1354.959 1353.253 1352.029 1350.508 1350.16 1351.585 1354.63 1357.261 1357.896 1360.341 1362.632 1364.264 1365.35 1366.611 1369.596 1372.579 1375.985 1380.528 1383.228 1386.178 1390.5 1397.61 1403.907 1410.55 1417.508 1425.474 1433.026 1440.598 1448.293 1451.798 1452.612 1450.148 1445.234 1440.326 1434.958 1428.124 1422.391 1412.01 1401.661 1392.733 1385.633 1380.001 1375.177 1371.45 1367.766 1365.189 1362.391 1359.6 1357.292 1355.191 1353.595 1353.305 1353.907 1356.39 1360.681 1362.678 1363.066 1364.268 1365.341 1365.118 1364.434 1363.776 1363.856 1364.527 1366.019 1368.375 1369.485 1369.509 1369.328 1368.083 1366.096 1364.352 1363.874 1367.418 1370.803 1373.158 1375.916 1378.848 1381.352 1382.419 1382.584 1382.539 1380.811 1381.85 1384.146 1387.453 1391.439 1392.05 1387.398 1386.037 1387.372 1389.254 1389.794 1388.239 1386.044 1387.304 1387.321 1387.957 1389.414 1393.527 1398.477 1399.374 1397.434 1395.213 1396.459 1397.896 1399.158 1400.381 1401.508 1405.023 1402.662 1404.164 1405.085 1401.628 1398.493 1400.128 1402.495 1404.427 1408.546 1411.661 1412.754 1410.545 1409.512 1412.969 1417.501 1419.246 1419.411 1418.768 1418.362 1418.386 1416.95 1415.479 1414.484 1413.753 1413.047 1412.146 1410.983 1410.064 1409.024 1410.096 1411.356 1411.97 1412.241 1411.366 1410.866 1410.759 1410.945 1410.981 1410.593 1409.779 1408.836 1407.801 1405.426 1403.728 1403.102 1402.085 1400.393 1399.813 1399.909 1398.251 1395.555 1391.738 1388.881 1388.188 1388.155 1387.461 1387.284 1386.989 1388.493 1393.435 1399.431 1401.039 1399.466 1397.435 1394.716 1390.781 1386.936 1383.091 1380.627 1380.7 1383.342 1386.644 1389.013 1392.154 1394.74 1396.15 1397.437 1401.021 1403.812 1405.683 1407.565 1409.458 1410.875 1412.354 1412.307 1412.091 1410.971 1409.237 1407.032 1404.467 1402.744 1401.671 1399.345 1397.198 1395.523 1394.495 1394.009 1394.333 1394.397 1393.71 1393.035 1392.643 1392.253 1393.151 1394.857 1394.71 1395.22 1396.199 1396.956 1396.758 1396.106 1395.183 1392.64 1388.538 1383.618 1380.84 1379.28 1379.61 1380.781 1378.574 1372.968 1372.831 1373.587 1375.517 1377.868 1379.161 1381.129 1385.953 1386.965 1388.366 1389.312 1389.873 1390.625 1391.667 1392.511 1392.874 1392.862 1392.899 1392.992 1392.879 1392.814 1393.429 1393.815 1394.648 1395.975 1397.142 1398.766 1401.089 1402.749 1403.369 1403.495 1403.728 1404.041 1404.222 1404.017 1404.263 1405.663 1407.889 1408.893 1409.419 1408.991 1407.433 1405.056 1403.118 1402.821 1402.99 1402.344 1401.516 1400.999 1401.007 1401.155 1401.203 1401.548 1401.874 1402.014 1402.139 1402.263 1402.393 1403.755 1406.068 1408.711 1410.632 1412.225 1414.069 1415.573 1417.457 1418.678 1419.621 1420.368 1420.967 1421.858 1422.301 1423.122 1423.974 1424.041 1423.326 1423.142 1425.08 1427.74 1429.016 1430.172 1432.228 1434.226 1436.048 1437.938 1440.232 1440.492 1440.858 1441.74 1444.022 1446.426 1448.025 1448.948 1449.743 1450.582
1364.481 1364.093 1362.385 1358.95 1357.92 1357.766 1356.975 1356.804 1357.343 1357.63 1356.245 1355.031 1353.849 1351.999 1350.883 1352.077 1355.019 1357.979 1359.375 1361.332 1363.76 1365.335 1366.309 1367.457 1369.734 1372.129 1374.598 1378.711 1381.895 1386.538 1392.469 1397.968 1401.767 1406.429 1412.867 1420.709 1428.123 1435.123 1442.248 1445.708 1446.096 1443.747 1439.536 1435.399 1431.403 1426.67 1422.4 1413.343 1403.655 1393.993 1385.854 1379.25 1373.829 1369.887 1367.448 1365.151 1362.046 1359.326 1357.292 1355.724 1354.786 1354.552 1354.63 1357 1361.269 1364.028 1364.399 1364.877 1366.238 1366.7 1365.336 1364.671 1364.668 1365.042 1367.05 1370.191 1371.69 1372.207 1372.657 1371.444 1368.699 1365.662 1364.232 1366.56 1369.043 1371.612 1373.315 1375.025 1378.37 1380.978 1382.592 1382.903 1381.76 1384.808 1387.805 1389.841 1394.026 1394.549 1390.147 1388.837 1388.991 1390.727 1391.618 1388.869 1387.605 1387.866 1389.834 1392.392 1393.649 1397.635 1403.103 1404.306 1403.058 1400.887 1400.798 1402.027 1402.654 1402.67 1403.526 1408.795 1408.941 1409.356 1409.322 1406.289 1403.192 1402.77 1406.981 1408.281 1411.25 1415.668 1417.607 1412.764 1409.963 1415.258 1420.013 1422.902 1423.189 1422.619 1422.509 1422.59 1420.505 1418.157 1416.75 1415.744 1414.784 1413.739 1412.156 1411.07 1410.005 1410.425 1411.15 1412.107 1412.646 1412.045 1411.794 1411.765 1411.605 1411.499 1411.094 1410.236 1409.156 1408.294 1405.924 1404.215 1403.276 1401.71 1399.176 1397.424 1396.733 1395.16 1392.444 1389.736 1388.375 1388.699 1389.658 1389.93 1391.106 1392.8 1394.822 1398.179 1401.836 1401.753 1398.961 1396.161 1393.014 1390.094 1387.349 1384.441 1382.091 1380.979 1382.672 1386.649 1388.619 1391.081 1393.709 1395.508 1396.23 1399.104 1402.079 1403.743 1406.048 1408.781 1410.681 1412.249 1412.559 1411.333 1409.524 1407.52 1405.466 1403.047 1400.791 1398.381 1396.106 1395.535 1395.235 1395.077 1394.698 1395.788 1396.514 1395.756 1396.358 1395.262 1394.829 1395.962 1397.338 1397.5 1397.622 1398.484 1397.88 1397.513 1396.395 1394.012 1390.796 1387.419 1381.682 1379.763 1380.819 1383.12 1384.396 1383.125 1378.543 1374.1 1373.813 1374.739 1376.425 1377.814 1379.422 1380.127 1384.183 1387.107 1388.145 1388.828 1389.671 1390.614 1391.003 1391.761 1391.402 1391.252 1391.155 1391.052 1391.254 1392.507 1393.668 1394.673 1396.367 1397.733 1399.284 1401.054 1401.847 1401.958 1402.03 1402.116 1402.348 1402.502 1402.478 1403.184 1404.847 1406.928 1407.83 1407.888 1406.822 1404.862 1403.004 1401.61 1400.607 1400.713 1400.334 1399.884 1399.795 1400.14 1400.526 1400.799 1401.232 1401.394 1401.563 1401.887 1402.108 1402.615 1404.361 1407.403 1409.925 1411.34 1412.602 1414.328 1415.931 1417.38 1418.619 1419.645 1420.582 1421.459 1422.594 1423.53 1424.416 1425.504 1426.25 1426.242 1425.607 1425.424 1426.622 1428.445 1431.081 1433.559 1435.859 1438.437 1441.045 1442.669 1442.667 1442.221 1442.161 1444.677 1446.728 1447.502 1448.011 1448.775 1449.582
1362.613 1362.974 1362.137 1360.318 1358.144 1358.635 1358.503 1358.081 1358.37 1358.667 1357.274 1356.721 1355.822 1353.979 1352.769 1352.991 1355.035 1357.45 1359.337 1362.088 1364.333 1366.015 1367.283 1368.882 1371.474 1373.144 1375.581 1378.967 1382.685 1387.27 1392.202 1396.063 1398.565 1402.715 1409.381 1416.819 1423.703 1429.657 1435.088 1437.511 1437.051 1434.611 1431.066 1427.621 1425.18 1423.39 1420.74 1412.855 1404.023 1394.243 1385.4 1377.961 1372.87 1370.859 1369.207 1365.807 1362.007 1359 1357.024 1355.799 1355.391 1355.046 1355.469 1357.143 1360.024 1362.985 1364.746 1365.862 1367.914 1368.086 1365.681 1364.925 1365.26 1365.541 1367.356 1370.262 1372.332 1373.908 1375.242 1374.481 1371.969 1369.056 1366.249 1365.66 1368.853 1372.311 1374.353 1375.308 1377.406 1379.836 1382.365 1384.243 1385.105 1387.036 1389.505 1392.204 1394.614 1394.937 1393.965 1390.1 1389.786 1392.613 1395.049 1391.219 1388.204 1388.923 1393.499 1396.154 1399.268 1403.303 1408.481 1409.426 1408.325 1405.842 1403.685 1404.644 1405.607 1403.687 1404.392 1410.042 1412.866 1413.583 1412.945 1409.43 1404.455 1406.583 1413.527 1413.312 1413.983 1418.178 1421.093 1416.987 1411.408 1422.544 1424.798 1425.468 1425.693 1425.583 1425.294 1426.1 1424.297 1421.111 1418.573 1417.484 1416.305 1414.953 1413.251 1412.08 1410.884 1410.275 1410.844 1412.168 1412.926 1412.863 1412.815 1412.65 1412.152 1411.873 1411.547 1410.804 1409.95 1409.608 1407.982 1406.032 1404.598 1402.894 1400.915 1398.275 1395.919 1393.727 1390.444 1388.551 1388.339 1390.24 1392.69 1393.484 1394.27 1396.165 1399.626 1401.868 1402.329 1400.701 1397.619 1394.977 1391.882 1389.332 1387.766 1386.711 1385.097 1382.62 1383.371 1387.178 1389.429 1391.849 1394.372 1396.09 1397.149 1399.023 1402.059 1403.774 1406.319 1409.054 1411.047 1411.985 1412.165 1411 1408.473 1406.303 1404.347 1402.439 1400.415 1397.134 1396.628 1397.001 1397.25 1397.846 1398.25 1399.442 1400.04 1399.308 1399.523 1397.59 1396.745 1398.29 1400.167 1400.39 1399.691 1398.909 1397.976 1396.944 1395.109 1392.181 1388.877 1383.263 1379.523 1381.904 1385.119 1386.949 1386.801 1385.234 1381.433 1377.844 1377.16 1376.734 1377.249 1377.833 1377.935 1377.953 1378.356 1382.342 1385.94 1387.761 1388.721 1389.701 1390.572 1390.845 1390.799 1390.137 1389.492 1389.283 1390.376 1392.299 1393.723 1394.801 1396.415 1397.651 1398.717 1399.655 1399.786 1399.655 1399.85 1400.632 1401.662 1402.403 1402.853 1403.961 1405.547 1406.648 1406.888 1406.487 1405.275 1403.125 1400.727 1399.316 1398.326 1398.317 1398.242 1398.357 1399 1399.88 1400.41 1400.911 1401.524 1401.796 1402.228 1402.671 1402.629 1402.753 1404.459 1407.802 1410.139 1411.407 1412.343 1413.527 1415.031 1416.388 1418.127 1419.284 1420.253 1421.392 1422.949 1424.332 1425.292 1426.357 1427.204 1427.479 1427.101 1426.276 1426.353 1428.134 1431.356 1434.346 1437.25 1440.295 1442.706 1443.766 1443.834 1443.817 1444.06 1445.636 1446.411 1446.502 1446.972 1447.75 1448.888
1360.225 1361.392 1362.455 1362.025 1361.661 1360.658 1360.476 1360.269 1359.887 1359.108 1357.419 1356.943 1357.594 1355.86 1354.289 1353.915 1355.22 1356.686 1358.357 1361.174 1363.886 1365.113 1366.335 1367.791 1370.002 1372.024 1374.422 1378.054 1381.834 1385.55 1389.176 1392.514 1395.937 1401.086 1406.89 1413.451 1419.504 1424.34 1427.596 1428.49 1427.332 1424.763 1421.981 1419.179 1418.466 1419.485 1417.373 1409.829 1401.427 1391.781 1383.248 1376.751 1374.393 1374.39 1372.875 1367.819 1362.716 1358.826 1356.609 1355.79 1355.823 1355.458 1356.331 1357.699 1359.708 1362.404 1365.015 1368.142 1370.607 1369.923 1366.143 1365.079 1365.734 1366.393 1367.635 1369.57 1371.62 1374.096 1377.222 1377.743 1375.59 1372.612 1369.187 1366.445 1369.254 1372.871 1376.382 1378.636 1379.772 1380.585 1382.012 1386.153 1388.159 1388.47 1389.106 1392.266 1394.647 1396.089 1395.711 1390.6 1389.714 1392.685 1395.067 1393.102 1391.312 1393.614 1396.192 1400.432 1405.091 1409.328 1415.427 1416.868 1412.306 1410.93 1410.441 1410.944 1411.401 1409.308 1407.695 1411.212 1416.396 1417.376 1415.873 1412.432 1405.825 1408.876 1417.517 1420.362 1419.075 1422.413 1424.742 1420.044 1412.921 1422.605 1425.853 1427.776 1428.798 1429.228 1429.044 1428.799 1427.18 1424.048 1421.102 1419.441 1417.622 1415.961 1414.27 1413.075 1411.327 1410.314 1410.792 1412.227 1413.387 1413.768 1413.7 1413.151 1412.676 1412.169 1411.808 1411.24 1410.719 1410.611 1409.679 1407.729 1405.773 1403.953 1402.39 1399.82 1396.678 1393.767 1390.23 1388.39 1388.616 1392.199 1396.243 1397.375 1396.861 1396.182 1400.054 1402.354 1401.544 1399.238 1396.376 1394.313 1391.651 1389.586 1389.348 1389.566 1388.315 1385.581 1385.511 1387.816 1390.002 1392.718 1394.986 1396.2 1397.673 1399.895 1402.832 1404.943 1407.591 1409.878 1411.383 1411.8 1411.824 1410.472 1407.681 1405.332 1403.178 1401.782 1401.325 1399.949 1401.014 1400.957 1401.083 1402.114 1402.833 1403.089 1403.164 1403.015 1402.426 1401.015 1401.406 1402.488 1402.68 1401.871 1400.138 1398.938 1397.915 1396.259 1393.709 1389.875 1386.7 1382.559 1383.832 1386.762 1388.178 1388.975 1388.786 1386.588 1383.285 1380.771 1380.153 1378.342 1377.29 1377.02 1377.569 1377.857 1378.676 1381.388 1384.36 1386.598 1388.233 1389.512 1389.839 1389.891 1389.928 1389.199 1388.357 1388.209 1389.57 1392.332 1394.336 1395.453 1396.495 1397.371 1397.866 1397.904 1397.251 1396.877 1397.585 1400.599 1402.352 1403.08 1403.744 1404.995 1405.825 1406.543 1406.263 1405.727 1404.698 1402.447 1398.896 1397.119 1396.413 1396.29 1396.376 1396.976 1398.392 1400.169 1401.113 1401.615 1402.444 1402.95 1403.676 1404.319 1403.774 1403.087 1404.682 1407.624 1409.608 1410.8 1411.471 1412.04 1413.039 1414.285 1416.605 1418.033 1419.035 1420.15 1422.205 1424.413 1425.577 1426.655 1427.238 1427.78 1428.232 1427.941 1427.417 1428.876 1431.973 1434.825 1438.205 1441.409 1443.637 1443.843 1444.052 1444.349 1444.721 1445.442 1445.456 1444.946 1445.416 1446.818 1448.555
1359.901 1361.468 1362.514 1363.493 1364.499 1363.563 1362.621 1362.307 1361.726 1360.377 1359.07 1359.56 1357.99 1356.828 1355.33 1354.791 1355.477 1355.995 1356.768 1358.039 1360.81 1362.808 1364.124 1365.518 1366.896 1368.423 1372.124 1375.583 1378.895 1381.585 1385.137 1389.227 1393.949 1398.857 1404.003 1409.428 1414.442 1418.054 1419.961 1420.087 1418.521 1415.599 1412.933 1411.334 1413.567 1416.957 1413.356 1405.814 1396.571 1387.599 1381.643 1379.17 1379.759 1378.269 1374.653 1368.81 1363.165 1358.634 1356.334 1356.077 1356.49 1356.328 1357.317 1359.108 1360.763 1362.901 1365.811 1370.148 1372.136 1371.434 1367.197 1365.967 1366.552 1367.42 1368.18 1369.379 1370.868 1373.062 1377.49 1379.657 1378.294 1375.219 1371.989 1369.165 1369.851 1372.451 1375.981 1379.372 1381.282 1382.25 1383.353 1386.875 1390.917 1391.873 1390.561 1391.55 1394.867 1396.633 1396.043 1392.332 1390.649 1392.555 1395.601 1395.06 1394.275 1396.996 1400.18 1404.5 1410.145 1415.992 1420.835 1422.07 1418.04 1416.958 1414.696 1417.441 1419.415 1414.548 1410.2 1410.027 1417.545 1419.202 1418.741 1416.005 1407.21 1409.664 1420.312 1426.259 1427.78 1429.856 1429.783 1421.389 1416.908 1424.245 1427.343 1428.698 1430.874 1433.091 1433.763 1432.192 1429.44 1426.174 1423.249 1421.023 1418.723 1416.977 1415.372 1414.184 1412.292 1411.029 1411.02 1412.344 1413.777 1414.475 1414.063 1413.72 1413.005 1412.602 1412.061 1411.529 1411.126 1410.902 1410.122 1408.259 1405.806 1403.671 1402.031 1400.107 1397.143 1394.531 1391.584 1389.15 1389.024 1393.716 1399.195 1401.112 1400.798 1397.137 1397.988 1400.445 1400.241 1397.885 1395.45 1393.766 1392.176 1391.223 1391.957 1392.454 1390.859 1388.003 1387.104 1387.833 1389.684 1392.862 1395.079 1396.087 1397.893 1400.763 1403.005 1405.395 1408.123 1410.145 1411.341 1411.453 1411.654 1410.202 1407.498 1405.082 1403.151 1402.543 1403.134 1402.714 1403.537 1403.427 1403.003 1404.112 1405.2 1405.374 1404.801 1404.644 1403.931 1403.609 1403.728 1403.728 1403.121 1402.079 1400.162 1398.887 1397.7 1395.656 1392.392 1388.451 1386.198 1386.815 1388.988 1390.522 1390.975 1390.709 1389.931 1388.257 1385.987 1382.112 1380.203 1379.596 1379.235 1378.853 1378.129 1378.601 1378.829 1380.696 1382.95 1385.749 1387.644 1388.607 1388.875 1388.895 1388.936 1388.204 1387.476 1387.769 1389.426 1392.283 1394.439 1395.568 1395.934 1396.244 1396.573 1396.25 1395.452 1396.368 1398.022 1401.488 1403.404 1404.061 1404.474 1404.989 1405.523 1405.859 1405.734 1405.088 1403.812 1401.007 1397.191 1395.835 1395.433 1395.354 1395.563 1396.361 1398.165 1400.583 1402.074 1402.657 1403.473 1404.292 1405.388 1406.6 1406.34 1404.874 1405.772 1408.241 1409.635 1410.609 1411.134 1411.735 1413.074 1413.474 1415.491 1417.179 1418.094 1418.669 1420.332 1423.462 1425.3 1426.496 1427.21 1427.905 1429.083 1429.965 1429.765 1430.663 1432.558 1435.261 1438.927 1442.011 1443.967 1444.216 1444.231 1444.46 1445.104 1444.83 1444.318 1443.975 1444.365 1445.578 1447.569
