ncols         380
nrows         29
xllcorner     589483.358397
yllcorner     3512390
cellsize      1
NODATA_value  -9999
-9999 -9999 -9999 -9999 -9999 -9999 -9999 1364.63 1364.651 1364.692 1364.711 1364.732 1364.713 1364.751 1364.723 1364.742 1364.72 1364.679 1364.658 1364.653 1364.653 1364.586 1364.547 1364.52 1364.481 1364.435 1364.464 1364.586 1364.68 1364.771 1364.844 1364.875 1364.878 1364.917 1364.903 1364.89 1364.895 1364.865 1364.793 1364.753 1364.696 1364.642 1364.562 1364.517 1364.401 1364.295 1364.271 1364.427 1364.503 1364.513 1364.526 1364.53 1364.529 1364.536 1364.524 1364.578 1364.648 1364.756 1364.928 1365.014 1365.066 1365.126 1365.139 1365.178 1365.194 1365.141 1365.031 1364.951 1364.934 1364.868 1364.8 1364.708 1364.599 1364.58 1364.54 1364.509 1364.543 1364.518 1364.484 1364.323 1364.28 1364.336 1364.496 1364.663 1364.881 1364.981 1365.131 1365.341 1365.488 1365.621 1365.686 1365.732 1365.732 1365.71 1365.676 1365.632 1365.555 1365.473 1365.352 1365.254 1365.197 1365.137 1365.079 1365.016 1365.057 1365.114 1365.069 1364.975 1364.903 1364.891 1364.845 1364.824 1365.03 1365.195 1365.329 1365.403 1365.386 1365.413 1365.394 1365.151 1364.927 1364.495 1364.054 1364.068 1364.354 1364.638 1364.958 1365.39 1365.643 1365.708 1365.708 1365.572 1365.406 1365.058 1365.062 1364.837 1365.275 1365.65 1365.876 1365.916 1366.069 1366.167 1366.192 1366.229 1366.286 1366.364 1366.398 1366.405 1366.432 1366.453 1366.524 1366.616 1366.689 1366.842 1366.974 1367.068 1367.211 1367.353 1367.462 1367.571 1367.634 1367.67 1367.679 1367.696 1367.764 1367.814 1367.859 1367.934 1368.044 1368.073 1368.089 1368.163 1368.227 1368.279 1368.334 1368.385 1368.438 1368.459 1368.494 1368.518 1368.538 1368.608 1368.662 1368.756 1368.854 1368.914 1368.949 1369.007 1369.079 1369.173 1369.241 1369.301 1369.366 1369.43 1369.482 1369.532 1369.573 1369.607 1369.655 1369.708 1369.73 1369.741 1369.752 1369.82 1369.821 1369.813 1369.832 1369.864 1369.99 1370.003 1370.018 1370.07 1370.126 1370.166 1370.212 1370.254 1370.3 1370.329 1370.381 1370.446 1370.474 1370.522 1370.573 1370.665 1370.661 1370.694 1370.745 1370.791 1370.832 1370.897 1370.973 1371.041 1371.09 1371.135 1371.212 1371.254 1371.307 1371.368 1371.39 1371.413 1371.44 1371.464 1371.488 1371.511 1371.528 1371.567 1371.611 1371.659 1371.673 1371.684 1371.735 1371.787 1371.816 1371.824 1371.879 1371.897 1371.931 1371.968 1371.993 1372.028 1372.058 1372.072 1372.109 1372.154 1372.218 1372.233 1372.265 1372.351 1372.393 1372.418 1372.425 1372.457 1372.487 1372.537 1372.592 1372.635 1372.661 1372.708 1372.799 1372.856 1372.914 1372.968 1373.025 1373.067 1373.098 1373.155 1373.2 1373.224 1373.254 1373.236 1373.244 1373.257 1373.259 1373.229 1373.197 1373.191 1373.19 1373.159 1373.136 1373.095 1373.095 1373.06 1373.035 1373.052 1373.022 1372.955 1372.944 1372.94 1372.915 1372.913 1372.913 1372.88 1372.82 1372.802 1372.818 1372.792 1372.761 1372.729 1372.728 1372.716 1372.674 1372.65 1372.587 1372.521 1372.51 1372.474 1372.451 1372.375 1372.321 1372.258 1372.201 1372.206 1372.205 1372.158 1372.127 1372.117 1372.068 1371.978 1371.938 1371.867 1371.84 1371.831 1371.796 -9999 -9999 -9999 -9999 -9999 -9999 -9999 -9999 -9999 -9999 -9999 -9999 -9999 -9999 -9999 -9999 -9999 -9999 -9999 -9999 -9999 -9999 -9999 -9999 -9999 -9999 -9999 -9999 -9999 -9999 -9999 -9999 -9999 -9999 -9999 -9999 -9999
-9999 -9999 -9999 -9999 -9999 -9999 -9999 1364.54 1364.563 1364.56 1364.56 1364.572 1364.57 1364.6 1364.597 1364.606 1364.594 1364.57 1364.512 1364.568 1364.536 1364.491 1364.453 1364.45 1364.383 1364.308 1364.379 1364.511 1364.607 1364.707 1364.782 1364.819 1364.859 1364.865 1364.859 1364.86 1364.859 1364.829 1364.761 1364.727 1364.675 1364.59 1364.497 1364.443 1364.365 1364.26 1364.253 1364.366 1364.428 1364.431 1364.456 1364.458 1364.46 1364.449 1364.445 1364.498 1364.62 1364.764 1364.876 1364.989 1365.095 1365.162 1365.157 1365.2 1365.174 1365.116 1365.014 1364.925 1364.815 1364.746 1364.718 1364.651 1364.55 1364.466 1364.399 1364.419 1364.473 1364.474 1364.425 1364.3 1364.227 1364.41 1364.607 1364.76 1364.917 1365.059 1365.133 1365.327 1365.471 1365.567 1365.682 1365.69 1365.671 1365.645 1365.602 1365.534 1365.456 1365.359 1365.297 1365.201 1365.141 1365.085 1364.988 1364.883 1364.945 1365.052 1364.967 1364.817 1364.756 1364.753 1364.764 1364.909 1365.092 1365.201 1365.271 1365.307 1365.304 1365.206 1365.092 1364.828 1364.522 1364.124 1363.988 1364.31 1364.771 1365.123 1365.49 1365.705 1365.735 1365.66 1365.501 1365.115 1364.873 1364.691 1364.792 1365.094 1365.602 1365.898 1365.956 1366.014 1365.97 1366.015 1366.083 1366.115 1366.198 1366.312 1366.344 1366.389 1366.442 1366.467 1366.577 1366.645 1366.715 1366.885 1367.03 1367.182 1367.266 1367.387 1367.51 1367.647 1367.722 1367.727 1367.75 1367.782 1367.854 1367.896 1367.912 1367.976 1368.099 1368.14 1368.179 1368.241 1368.302 1368.346 1368.395 1368.432 1368.468 1368.507 1368.552 1368.573 1368.591 1368.647 1368.697 1368.783 1368.872 1368.913 1368.977 1369.044 1369.117 1369.183 1369.245 1369.309 1369.39 1369.462 1369.503 1369.551 1369.61 1369.638 1369.69 1369.712 1369.758 1369.812 1369.811 1369.808 1369.823 1369.84 1369.852 1369.935 1370.018 1370.064 1370.126 1370.142 1370.172 1370.188 1370.249 1370.275 1370.305 1370.347 1370.408 1370.445 1370.496 1370.547 1370.607 1370.668 1370.729 1370.745 1370.753 1370.785 1370.856 1370.922 1371.009 1371.088 1371.115 1371.165 1371.231 1371.277 1371.314 1371.36 1371.393 1371.41 1371.423 1371.458 1371.475 1371.497 1371.498 1371.558 1371.563 1371.601 1371.64 1371.661 1371.702 1371.751 1371.76 1371.781 1371.832 1371.852 1371.869 1371.91 1371.956 1371.993 1372.022 1372.051 1372.089 1372.106 1372.165 1372.191 1372.197 1372.243 1372.298 1372.318 1372.343 1372.386 1372.434 1372.493 1372.556 1372.584 1372.6 1372.644 1372.703 1372.779 1372.843 1372.909 1372.967 1373.024 1373.079 1373.13 1373.162 1373.182 1373.214 1373.196 1373.203 1373.21 1373.201 1373.178 1373.147 1373.132 1373.132 1373.117 1373.1 1373.055 1373.046 1373.037 1373.005 1372.995 1372.962 1372.932 1372.925 1372.907 1372.883 1372.861 1372.858 1372.845 1372.797 1372.788 1372.803 1372.829 1372.759 1372.7 1372.685 1372.663 1372.64 1372.612 1372.537 1372.469 1372.426 1372.411 1372.397 1372.344 1372.262 1372.204 1372.156 1372.113 1372.106 1372.066 1372.035 1371.988 1371.931 1371.901 1371.862 1371.781 1371.762 1371.753 -9999 -9999 -9999 -9999 -9999 -9999 -9999 -9999 -9999 -9999 -9999 -9999 -9999 -9999 -9999 -9999 -9999 -9999 -9999 -9999 -9999 -9999 -9999 -9999 -9999 -9999 -9999 -9999 -9999 -9999 -9999 -9999 -9999 -9999 -9999 -9999 -9999 -9999
-9999 -9999 -9999 -9999 -9999 -9999 -9999 1364.493 1364.497 1364.48 1364.479 1364.492 1364.487 1364.489 1364.513 1364.499 1364.498 1364.485 1364.43 1364.413 1364.398 1364.357 1364.307 1364.278 1364.209 1364.169 1364.23 1364.404 1364.518 1364.63 1364.746 1364.775 1364.79 1364.806 1364.838 1364.84 1364.812 1364.798 1364.75 1364.678 1364.645 1364.559 1364.444 1364.398 1364.307 1364.236 1364.144 1364.265 1364.345 1364.37 1364.392 1364.372 1364.384 1364.388 1364.406 1364.513 1364.656 1364.79 1364.899 1364.996 1365.118 1365.17 1365.19 1365.203 1365.152 1365.076 1364.984 1364.892 1364.809 1364.731 1364.675 1364.583 1364.506 1364.457 1364.367 1364.331 1364.418 1364.459 1364.423 1364.352 1364.235 1364.411 1364.588 1364.763 1364.973 1365.052 1365.106 1365.238 1365.355 1365.491 1365.603 1365.597 1365.561 1365.526 1365.482 1365.407 1365.32 1365.236 1365.19 1365.146 1365.031 1364.99 1364.935 1364.849 1364.858 1364.937 1364.827 1364.68 1364.699 1364.725 1364.837 1365.028 1365.106 1365.179 1365.183 1365.217 1365.132 1364.937 1364.735 1364.441 1364.13 1363.93 1364.149 1364.584 1365.068 1365.445 1365.669 1365.718 1365.644 1365.421 1365.015 1364.697 1364.629 1364.703 1364.866 1365.083 1365.497 1365.791 1365.923 1365.921 1365.827 1365.867 1365.954 1366.065 1366.15 1366.271 1366.333 1366.442 1366.501 1366.507 1366.571 1366.667 1366.793 1366.957 1367.111 1367.259 1367.326 1367.429 1367.56 1367.646 1367.743 1367.811 1367.868 1367.91 1367.961 1368.036 1368.038 1368.08 1368.147 1368.199 1368.241 1368.314 1368.355 1368.399 1368.456 1368.48 1368.495 1368.58 1368.608 1368.621 1368.623 1368.701 1368.752 1368.796 1368.902 1368.944 1369.007 1369.076 1369.151 1369.2 1369.261 1369.331 1369.414 1369.484 1369.497 1369.586 1369.619 1369.662 1369.708 1369.724 1369.762 1369.814 1369.85 1369.831 1369.836 1369.838 1369.903 1369.971 1370.013 1370.073 1370.148 1370.181 1370.191 1370.209 1370.264 1370.326 1370.349 1370.368 1370.439 1370.463 1370.51 1370.581 1370.64 1370.678 1370.702 1370.762 1370.779 1370.829 1370.9 1370.963 1371.012 1371.09 1371.158 1371.203 1371.251 1371.298 1371.327 1371.336 1371.391 1371.399 1371.411 1371.451 1371.466 1371.488 1371.506 1371.536 1371.53 1371.557 1371.623 1371.635 1371.676 1371.697 1371.716 1371.741 1371.811 1371.83 1371.836 1371.878 1371.944 1371.968 1371.984 1372.03 1372.049 1372.046 1372.088 1372.111 1372.133 1372.165 1372.226 1372.257 1372.281 1372.316 1372.374 1372.421 1372.474 1372.494 1372.543 1372.642 1372.688 1372.736 1372.797 1372.856 1372.892 1372.931 1372.995 1373.06 1373.081 1373.1 1373.117 1373.122 1373.151 1373.165 1373.14 1373.09 1373.057 1373.053 1373.042 1373.041 1373 1373.027 1373.049 1373.023 1372.977 1372.948 1372.92 1372.902 1372.91 1372.876 1372.852 1372.822 1372.812 1372.79 1372.748 1372.741 1372.778 1372.786 1372.713 1372.686 1372.706 1372.669 1372.607 1372.596 1372.523 1372.449 1372.396 1372.359 1372.34 1372.302 1372.204 1372.131 1372.079 1372.03 1372.009 1371.988 1371.958 1371.912 1371.857 1371.838 1371.773 1371.721 1371.695 -9999 -9999 -9999 -9999 -9999 -9999 -9999 -9999 -9999 -9999 -9999 -9999 -9999 -9999 -9999 -9999 -9999 -9999 -9999 -9999 -9999 -9999 -9999 -9999 -9999 -9999 -9999 -9999 -9999 -9999 -9999 -9999 -9999 -9999 -9999 -9999 -9999 -9999 -9999
-9999 -9999 -9999 -9999 -9999 -9999 -9999 1364.438 1364.422 1364.405 1364.396 1364.396 1364.392 1364.423 1364.455 1364.419 1364.403 1364.387 1364.365 1364.339 1364.318 1364.293 1364.239 1364.176 1364.07 1364.054 1364.149 1364.324 1364.458 1364.562 1364.694 1364.709 1364.736 1364.773 1364.782 1364.774 1364.747 1364.7 1364.694 1364.617 1364.574 1364.491 1364.398 1364.287 1364.222 1364.1 1364 1364.068 1364.169 1364.224 1364.234 1364.217 1364.263 1364.265 1364.368 1364.53 1364.681 1364.794 1364.923 1365.02 1365.112 1365.177 1365.203 1365.211 1365.15 1365.068 1364.964 1364.885 1364.811 1364.745 1364.667 1364.571 1364.465 1364.397 1364.347 1364.3 1364.365 1364.427 1364.444 1364.331 1364.198 1364.387 1364.594 1364.751 1364.97 1365.058 1365.136 1365.222 1365.333 1365.442 1365.534 1365.532 1365.479 1365.423 1365.37 1365.32 1365.241 1365.172 1365.138 1365.114 1365.038 1364.96 1364.894 1364.813 1364.724 1364.716 1364.605 1364.657 1364.853 1364.9 1364.921 1365.015 1365.049 1365.083 1365.038 1364.901 1364.709 1364.476 1364.286 1364.122 1363.917 1364.016 1364.554 1364.985 1365.251 1365.529 1365.649 1365.646 1365.391 1364.993 1364.565 1364.614 1364.666 1364.688 1364.85 1365.005 1365.206 1365.521 1365.687 1365.748 1365.653 1365.702 1365.831 1366.073 1366.22 1366.311 1366.369 1366.492 1366.532 1366.544 1366.619 1366.699 1366.823 1366.969 1367.138 1367.302 1367.393 1367.463 1367.603 1367.674 1367.756 1367.812 1367.902 1367.939 1367.988 1368.066 1368.092 1368.165 1368.213 1368.267 1368.32 1368.401 1368.436 1368.455 1368.502 1368.562 1368.598 1368.67 1368.695 1368.734 1368.736 1368.783 1368.85 1368.882 1368.94 1368.99 1369.029 1369.092 1369.158 1369.219 1369.271 1369.354 1369.444 1369.502 1369.534 1369.625 1369.652 1369.665 1369.716 1369.752 1369.769 1369.806 1369.834 1369.835 1369.859 1369.86 1369.926 1369.948 1370.011 1370.038 1370.161 1370.224 1370.23 1370.25 1370.298 1370.38 1370.395 1370.419 1370.462 1370.501 1370.531 1370.604 1370.66 1370.703 1370.741 1370.769 1370.793 1370.845 1370.899 1370.974 1371.03 1371.079 1371.146 1371.199 1371.248 1371.288 1371.342 1371.36 1371.379 1371.376 1371.379 1371.407 1371.441 1371.452 1371.455 1371.48 1371.517 1371.558 1371.589 1371.62 1371.64 1371.659 1371.654 1371.703 1371.758 1371.783 1371.812 1371.841 1371.906 1371.931 1371.922 1371.947 1371.972 1371.989 1372.023 1372.039 1372.058 1372.111 1372.158 1372.172 1372.209 1372.262 1372.323 1372.344 1372.408 1372.458 1372.523 1372.609 1372.654 1372.713 1372.753 1372.796 1372.858 1372.906 1372.942 1372.976 1373.02 1373.057 1373.078 1373.071 1373.047 1373.062 1373.05 1373.04 1373.024 1373.026 1373.029 1373.013 1372.961 1372.95 1372.958 1372.939 1372.907 1372.895 1372.868 1372.844 1372.827 1372.823 1372.808 1372.792 1372.765 1372.73 1372.724 1372.728 1372.74 1372.678 1372.639 1372.667 1372.696 1372.626 1372.559 1372.547 1372.49 1372.388 1372.343 1372.324 1372.282 1372.212 1372.135 1372.074 1372.037 1371.987 1371.938 1371.923 1371.89 1371.849 1371.784 1371.747 1371.722 1371.685 -9999 -9999 -9999 -9999 -9999 -9999 -9999 -9999 -9999 -9999 -9999 -9999 -9999 -9999 -9999 -9999 -9999 -9999 -9999 -9999 -9999 -9999 -9999 -9999 -9999 -9999 -9999 -9999 -9999 -9999 -9999 -9999 -9999 -9999 -9999 -9999 -9999 -9999 -9999 -9999
-9999 -9999 -9999 -9999 -9999 -9999 -9999 1364.372 1364.354 1364.363 1364.304 1364.275 1364.348 1364.344 1364.32 1364.299 1364.286 1364.279 1364.278 1364.269 1364.252 1364.206 1364.154 1364.084 1363.99 1364.003 1364.15 1364.265 1364.403 1364.518 1364.626 1364.661 1364.704 1364.725 1364.739 1364.732 1364.707 1364.672 1364.674 1364.586 1364.53 1364.43 1364.348 1364.252 1364.17 1364.067 1363.95 1363.908 1364.016 1364.066 1364.084 1364.096 1364.113 1364.196 1364.38 1364.544 1364.718 1364.831 1364.995 1365.087 1365.107 1365.151 1365.193 1365.175 1365.137 1365.067 1364.965 1364.882 1364.786 1364.737 1364.636 1364.566 1364.43 1364.355 1364.309 1364.258 1364.306 1364.373 1364.447 1364.308 1364.166 1364.382 1364.588 1364.735 1364.928 1365.037 1365.134 1365.196 1365.301 1365.411 1365.443 1365.417 1365.395 1365.349 1365.255 1365.234 1365.167 1365.094 1365.073 1365.036 1364.977 1364.905 1364.843 1364.741 1364.644 1364.588 1364.559 1364.751 1364.911 1364.926 1364.944 1364.965 1364.964 1364.912 1364.844 1364.644 1364.406 1364.184 1363.961 1363.887 1363.953 1364.565 1365.221 1365.468 1365.527 1365.556 1365.488 1365.37 1365.007 1364.519 1364.675 1365.064 1365.17 1365.225 1365.248 1365.167 1365.046 1365.215 1365.331 1365.434 1365.393 1365.549 1365.728 1366.043 1366.262 1366.363 1366.47 1366.517 1366.55 1366.597 1366.636 1366.751 1366.818 1366.95 1367.118 1367.297 1367.383 1367.445 1367.581 1367.683 1367.745 1367.833 1367.902 1367.957 1368.023 1368.133 1368.12 1368.177 1368.255 1368.307 1368.367 1368.412 1368.466 1368.489 1368.541 1368.602 1368.648 1368.704 1368.748 1368.763 1368.802 1368.887 1368.914 1368.906 1369.001 1369.035 1369.058 1369.135 1369.185 1369.22 1369.288 1369.397 1369.465 1369.524 1369.578 1369.618 1369.646 1369.687 1369.725 1369.776 1369.79 1369.799 1369.81 1369.821 1369.87 1369.902 1369.942 1369.971 1370.031 1370.063 1370.153 1370.212 1370.251 1370.292 1370.328 1370.414 1370.426 1370.448 1370.468 1370.534 1370.554 1370.609 1370.664 1370.722 1370.762 1370.797 1370.861 1370.893 1370.929 1370.983 1371.035 1371.082 1371.132 1371.19 1371.242 1371.267 1371.287 1371.325 1371.341 1371.339 1371.348 1371.369 1371.4 1371.405 1371.415 1371.453 1371.474 1371.494 1371.548 1371.58 1371.613 1371.645 1371.637 1371.641 1371.711 1371.744 1371.758 1371.768 1371.8 1371.815 1371.819 1371.841 1371.866 1371.905 1371.929 1371.964 1371.988 1372.05 1372.095 1372.127 1372.156 1372.224 1372.275 1372.305 1372.366 1372.413 1372.484 1372.559 1372.621 1372.677 1372.704 1372.733 1372.826 1372.88 1372.898 1372.927 1372.953 1372.987 1373.019 1372.996 1372.993 1372.989 1372.974 1372.982 1372.994 1372.972 1372.977 1372.976 1372.938 1372.9 1372.903 1372.873 1372.868 1372.846 1372.817 1372.81 1372.774 1372.781 1372.769 1372.75 1372.714 1372.692 1372.68 1372.684 1372.681 1372.625 1372.573 1372.59 1372.572 1372.526 1372.516 1372.533 1372.438 1372.341 1372.242 1372.227 1372.209 1372.122 1372.07 1372.026 1371.948 1371.892 1371.855 1371.874 1371.82 1371.763 1371.71 1371.68 1371.668 1371.641 -9999 -9999 -9999 -9999 -9999 -9999 -9999 -9999 -9999 -9999 -9999 -9999 -9999 -9999 -9999 -9999 -9999 -9999 -9999 -9999 -9999 -9999 -9999 -9999 -9999 -9999 -9999 -9999 -9999 -9999 -9999 -9999 -9999 -9999 -9999 -9999 -9999 -9999 -9999 -9999
-9999 -9999 -9999 -9999 -9999 -9999 -9999 1364.247 1364.255 1364.262 1364.22 1364.168 1364.186 1364.168 1364.148 1364.166 1364.146 1364.135 1364.122 1364.05 1364.133 1364.11 1364.036 1363.902 1363.865 1363.989 1364.11 1364.189 1364.346 1364.497 1364.611 1364.652 1364.705 1364.72 1364.712 1364.71 1364.679 1364.645 1364.654 1364.585 1364.452 1364.396 1364.293 1364.202 1364.119 1364.005 1363.898 1363.807 1363.849 1363.875 1363.938 1364.004 1364.12 1364.256 1364.413 1364.595 1364.764 1364.877 1365.009 1365.108 1365.151 1365.15 1365.186 1365.17 1365.129 1365.033 1364.942 1364.849 1364.776 1364.732 1364.654 1364.54 1364.392 1364.294 1364.266 1364.237 1364.239 1364.306 1364.337 1364.223 1364.136 1364.352 1364.509 1364.651 1364.811 1364.957 1365.107 1365.15 1365.258 1365.324 1365.339 1365.295 1365.296 1365.221 1365.144 1365.123 1365.072 1364.989 1364.966 1364.92 1364.878 1364.814 1364.727 1364.646 1364.572 1364.56 1364.666 1364.803 1364.876 1364.866 1364.827 1364.794 1364.715 1364.633 1364.539 1364.376 1364.171 1364 1363.87 1363.911 1364.313 1364.833 1365.332 1365.429 1365.507 1365.394 1365.192 1364.795 1364.493 1364.503 1365.037 1365.435 1365.615 1365.672 1365.706 1365.762 1365.74 1365.714 1365.67 1365.576 1365.543 1365.657 1365.663 1365.811 1366.041 1366.15 1366.269 1366.356 1366.439 1366.543 1366.713 1366.782 1366.842 1366.958 1367.098 1367.233 1367.347 1367.41 1367.56 1367.64 1367.694 1367.778 1367.876 1367.965 1368.076 1368.192 1368.194 1368.236 1368.31 1368.335 1368.391 1368.426 1368.492 1368.535 1368.592 1368.634 1368.679 1368.717 1368.766 1368.809 1368.861 1368.925 1368.965 1368.981 1369.032 1369.057 1369.093 1369.194 1369.236 1369.267 1369.323 1369.402 1369.452 1369.515 1369.587 1369.627 1369.647 1369.704 1369.753 1369.784 1369.816 1369.823 1369.809 1369.84 1369.851 1369.888 1369.95 1370.012 1370.061 1370.119 1370.154 1370.156 1370.228 1370.278 1370.319 1370.396 1370.417 1370.472 1370.493 1370.564 1370.597 1370.617 1370.678 1370.718 1370.777 1370.802 1370.868 1370.909 1370.961 1370.995 1371.046 1371.096 1371.126 1371.163 1371.231 1371.252 1371.26 1371.292 1371.304 1371.297 1371.309 1371.355 1371.379 1371.348 1371.372 1371.424 1371.445 1371.445 1371.495 1371.515 1371.545 1371.615 1371.604 1371.601 1371.637 1371.68 1371.703 1371.687 1371.721 1371.741 1371.751 1371.798 1371.825 1371.837 1371.85 1371.888 1371.903 1371.954 1372.032 1372.059 1372.112 1372.179 1372.237 1372.268 1372.287 1372.37 1372.418 1372.456 1372.544 1372.599 1372.645 1372.678 1372.74 1372.811 1372.834 1372.869 1372.89 1372.905 1372.93 1372.945 1372.945 1372.944 1372.947 1372.936 1372.947 1372.936 1372.928 1372.943 1372.893 1372.856 1372.849 1372.853 1372.823 1372.789 1372.764 1372.774 1372.738 1372.743 1372.714 1372.679 1372.683 1372.647 1372.636 1372.63 1372.62 1372.606 1372.556 1372.542 1372.505 1372.464 1372.448 1372.434 1372.373 1372.292 1372.224 1372.172 1372.124 1372.072 1372.025 1371.979 1371.909 1371.844 1371.783 1371.755 1371.749 1371.675 1371.65 1371.618 1371.576 -9999 -9999 -9999 -9999 -9999 -9999 -9999 -9999 -9999 -9999 -9999 -9999 -9999 -9999 -9999 -9999 -9999 -9999 -9999 -9999 -9999 -9999 -9999 -9999 -9999 -9999 -9999 -9999 -9999 -9999 -9999 -9999 -9999 -9999 -9999 -9999 -9999 -9999 -9999 -9999 -9999
-9999 -9999 -9999 -9999 -9999 -9999 1364.206 1364.206 1364.201 1364.183 1364.124 1364.078 1364.075 1364.083 1364.092 1364.087 1364.082 1364.039 1364.006 1363.952 1363.911 1363.919 1363.892 1363.747 1363.746 1363.891 1363.963 1364.114 1364.306 1364.443 1364.57 1364.619 1364.667 1364.695 1364.674 1364.651 1364.622 1364.623 1364.6 1364.53 1364.397 1364.325 1364.254 1364.118 1363.991 1363.885 1363.796 1363.711 1363.71 1363.75 1363.845 1364.002 1364.148 1364.337 1364.482 1364.648 1364.816 1364.917 1365.055 1365.13 1365.185 1365.2 1365.204 1365.177 1365.109 1365.036 1364.94 1364.849 1364.782 1364.718 1364.624 1364.518 1364.394 1364.277 1364.223 1364.186 1364.198 1364.298 1364.296 1364.161 1364.119 1364.306 1364.464 1364.591 1364.737 1364.912 1364.991 1365.056 1365.076 1365.135 1365.141 1365.101 1365.067 1365.044 1365.017 1364.942 1364.872 1364.831 1364.749 1364.646 1364.553 1364.491 1364.452 1364.543 1364.471 1364.563 1364.733 1364.804 1364.84 1364.702 1364.54 1364.477 1364.35 1364.3 1364.123 1363.987 1363.911 1363.8 1363.909 1364.318 1364.784 1365.209 1365.335 1365.375 1365.316 1365.152 1364.703 1364.308 1364.489 1365.019 1365.384 1365.657 1365.727 1365.764 1365.785 1365.81 1365.797 1365.881 1365.914 1365.837 1365.837 1365.982 1366.01 1365.948 1365.983 1365.975 1366.176 1366.353 1366.387 1366.423 1366.61 1366.742 1366.824 1366.933 1367.047 1367.169 1367.328 1367.433 1367.506 1367.64 1367.71 1367.775 1367.88 1367.989 1368.132 1368.207 1368.221 1368.292 1368.344 1368.38 1368.416 1368.441 1368.503 1368.568 1368.645 1368.668 1368.696 1368.724 1368.798 1368.838 1368.913 1368.942 1368.983 1369.023 1369.043 1369.079 1369.127 1369.21 1369.24 1369.297 1369.359 1369.409 1369.464 1369.522 1369.591 1369.649 1369.694 1369.717 1369.755 1369.796 1369.847 1369.851 1369.836 1369.855 1369.855 1369.884 1369.978 1370.014 1370.068 1370.146 1370.179 1370.192 1370.248 1370.294 1370.372 1370.403 1370.438 1370.491 1370.535 1370.57 1370.602 1370.667 1370.722 1370.745 1370.785 1370.837 1370.86 1370.909 1370.979 1371.019 1371.034 1371.088 1371.151 1371.172 1371.199 1371.233 1371.249 1371.257 1371.256 1371.265 1371.272 1371.304 1371.296 1371.295 1371.317 1371.361 1371.379 1371.391 1371.427 1371.46 1371.513 1371.532 1371.534 1371.53 1371.551 1371.583 1371.605 1371.616 1371.628 1371.655 1371.687 1371.708 1371.716 1371.728 1371.745 1371.807 1371.841 1371.908 1371.948 1371.989 1372.053 1372.138 1372.22 1372.246 1372.252 1372.307 1372.377 1372.441 1372.504 1372.553 1372.595 1372.647 1372.713 1372.737 1372.764 1372.819 1372.84 1372.854 1372.872 1372.856 1372.872 1372.883 1372.901 1372.868 1372.893 1372.901 1372.865 1372.844 1372.831 1372.81 1372.781 1372.802 1372.804 1372.751 1372.714 1372.725 1372.713 1372.692 1372.665 1372.656 1372.664 1372.635 1372.602 1372.579 1372.566 1372.557 1372.549 1372.497 1372.456 1372.423 1372.375 1372.363 1372.304 1372.23 1372.164 1372.099 1372.04 1372.025 1371.961 1371.919 1371.872 1371.829 1371.79 1371.741 1371.708 1371.661 1371.603 1371.563 -9999 -9999 -9999 -9999 -9999 -9999 -9999 -9999 -9999 -9999 -9999 -9999 -9999 -9999 -9999 -9999 -9999 -9999 -9999 -9999 -9999 -9999 -9999 -9999 -9999 -9999 -9999 -9999 -9999 -9999 -9999 -9999 -9999 -9999 -9999 -9999 -9999 -9999 -9999 -9999 -9999 -9999
-9999 -9999 -9999 -9999 -9999 -9999 1364.124 1364.126 1364.114 1364.068 1364.017 1363.994 1363.969 1363.989 1364 1364.003 1363.993 1363.964 1363.921 1363.86 1363.826 1363.826 1363.782 1363.686 1363.694 1363.84 1363.935 1364.071 1364.255 1364.384 1364.512 1364.591 1364.653 1364.67 1364.644 1364.627 1364.581 1364.583 1364.509 1364.433 1364.28 1364.236 1364.186 1364.053 1363.99 1363.839 1363.707 1363.624 1363.576 1363.7 1363.905 1364.091 1364.26 1364.4 1364.51 1364.704 1364.866 1364.992 1365.119 1365.18 1365.212 1365.218 1365.191 1365.139 1365.067 1365.036 1364.958 1364.854 1364.775 1364.7 1364.598 1364.487 1364.442 1364.311 1364.196 1364.135 1364.196 1364.316 1364.241 1364.141 1364.171 1364.298 1364.421 1364.538 1364.644 1364.802 1364.873 1364.938 1364.959 1365.013 1365.02 1364.993 1364.953 1364.94 1364.889 1364.84 1364.781 1364.709 1364.562 1364.449 1364.384 1364.395 1364.427 1364.538 1364.587 1364.674 1364.707 1364.58 1364.472 1364.232 1363.938 1363.831 1363.766 1363.784 1363.766 1363.765 1363.812 1363.837 1363.927 1364.367 1364.886 1365.042 1365.2 1365.149 1364.892 1364.601 1364.251 1364.444 1364.946 1365.352 1365.55 1365.631 1365.719 1365.751 1365.761 1365.781 1365.8 1365.888 1365.975 1365.965 1365.962 1366.175 1366.276 1366.244 1366.261 1366.254 1366.383 1366.519 1366.544 1366.502 1366.538 1366.672 1366.779 1366.896 1367.058 1367.18 1367.306 1367.471 1367.561 1367.691 1367.773 1367.866 1367.951 1368.021 1368.122 1368.187 1368.246 1368.316 1368.39 1368.42 1368.451 1368.516 1368.548 1368.586 1368.656 1368.672 1368.707 1368.768 1368.835 1368.894 1368.957 1368.978 1369.01 1369.051 1369.095 1369.155 1369.155 1369.203 1369.238 1369.305 1369.376 1369.431 1369.488 1369.546 1369.603 1369.651 1369.711 1369.756 1369.781 1369.792 1369.821 1369.837 1369.856 1369.85 1369.888 1369.968 1370.03 1370.032 1370.069 1370.133 1370.181 1370.223 1370.282 1370.324 1370.386 1370.402 1370.445 1370.499 1370.553 1370.577 1370.644 1370.711 1370.751 1370.779 1370.808 1370.854 1370.888 1370.939 1370.98 1371.027 1371.039 1371.075 1371.11 1371.137 1371.158 1371.175 1371.195 1371.2 1371.179 1371.184 1371.213 1371.198 1371.219 1371.219 1371.216 1371.266 1371.266 1371.291 1371.322 1371.343 1371.351 1371.42 1371.449 1371.458 1371.478 1371.485 1371.499 1371.538 1371.542 1371.564 1371.581 1371.583 1371.613 1371.636 1371.658 1371.733 1371.795 1371.852 1371.912 1371.948 1371.987 1372.074 1372.141 1372.163 1372.183 1372.234 1372.324 1372.394 1372.478 1372.49 1372.541 1372.6 1372.689 1372.712 1372.739 1372.781 1372.787 1372.815 1372.835 1372.836 1372.838 1372.855 1372.868 1372.862 1372.842 1372.842 1372.811 1372.803 1372.802 1372.785 1372.773 1372.775 1372.752 1372.728 1372.705 1372.701 1372.686 1372.661 1372.616 1372.604 1372.643 1372.591 1372.531 1372.513 1372.518 1372.506 1372.485 1372.468 1372.416 1372.351 1372.297 1372.281 1372.23 1372.151 1372.083 1372.014 1371.979 1371.948 1371.893 1371.847 1371.842 1371.815 1371.77 1371.704 1371.671 1371.612 1371.568 1371.528 -9999 -9999 -9999 -9999 -9999 -9999 -9999 -9999 -9999 -9999 -9999 -9999 -9999 -9999 -9999 -9999 -9999 -9999 -9999 -9999 -9999 -9999 -9999 -9999 -9999 -9999 -9999 -9999 -9999 -9999 -9999 -9999 -9999 -9999 -9999 -9999 -9999 -9999 -9999 -9999 -9999 -9999
-9999 -9999 -9999 -9999 -9999 -9999 1364.027 1364.051 1364.028 1363.984 1363.922 1363.9 1363.909 1363.906 1363.882 1363.914 1363.89 1363.841 1363.804 1363.79 1363.746 1363.706 1363.636 1363.546 1363.595 1363.794 1363.924 1364.057 1364.198 1364.323 1364.467 1364.553 1364.631 1364.651 1364.625 1364.601 1364.543 1364.504 1364.459 1364.384 1364.234 1364.168 1364.106 1363.988 1363.903 1363.764 1363.633 1363.533 1363.543 1363.689 1363.964 1364.17 1364.353 1364.514 1364.651 1364.808 1364.924 1365.095 1365.203 1365.254 1365.25 1365.191 1365.188 1365.158 1365.052 1365.01 1364.93 1364.837 1364.755 1364.661 1364.559 1364.478 1364.445 1364.349 1364.232 1364.13 1364.159 1364.253 1364.173 1364.097 1364.172 1364.28 1364.39 1364.477 1364.556 1364.686 1364.748 1364.818 1364.898 1364.903 1364.912 1364.886 1364.862 1364.818 1364.764 1364.713 1364.662 1364.492 1364.32 1364.222 1364.259 1364.41 1364.547 1364.605 1364.567 1364.564 1364.545 1364.297 1364.086 1363.849 1363.641 1363.673 1363.677 1363.746 1363.758 1363.779 1363.836 1363.862 1363.913 1364.178 1364.559 1364.499 1364.531 1364.237 1364.104 1364.126 1364.383 1364.771 1365.204 1365.432 1365.557 1365.573 1365.604 1365.652 1365.709 1365.721 1365.753 1365.867 1365.995 1366.044 1366.048 1366.203 1366.318 1366.398 1366.434 1366.49 1366.588 1366.652 1366.692 1366.667 1366.671 1366.731 1366.849 1366.902 1367.045 1367.177 1367.358 1367.517 1367.643 1367.728 1367.793 1367.932 1368.007 1368.057 1368.177 1368.239 1368.279 1368.324 1368.411 1368.465 1368.475 1368.516 1368.569 1368.631 1368.698 1368.691 1368.756 1368.829 1368.875 1368.927 1368.982 1369.017 1369.037 1369.064 1369.126 1369.195 1369.203 1369.256 1369.289 1369.329 1369.411 1369.458 1369.527 1369.58 1369.62 1369.662 1369.701 1369.776 1369.816 1369.802 1369.8 1369.819 1369.821 1369.84 1369.939 1370.012 1370.098 1370.071 1370.07 1370.139 1370.188 1370.239 1370.297 1370.337 1370.378 1370.416 1370.474 1370.536 1370.579 1370.585 1370.63 1370.697 1370.749 1370.787 1370.827 1370.883 1370.928 1370.979 1370.99 1371.031 1371.061 1371.083 1371.076 1371.074 1371.1 1371.125 1371.158 1371.15 1371.141 1371.14 1371.134 1371.142 1371.187 1371.165 1371.168 1371.191 1371.202 1371.224 1371.248 1371.263 1371.288 1371.305 1371.343 1371.35 1371.368 1371.369 1371.346 1371.333 1371.352 1371.34 1371.372 1371.455 1371.494 1371.451 1371.48 1371.577 1371.716 1371.795 1371.896 1371.925 1371.975 1372.017 1372.064 1372.115 1372.167 1372.17 1372.268 1372.36 1372.436 1372.47 1372.497 1372.561 1372.642 1372.699 1372.692 1372.715 1372.749 1372.78 1372.802 1372.829 1372.805 1372.807 1372.827 1372.819 1372.804 1372.779 1372.781 1372.772 1372.756 1372.75 1372.73 1372.725 1372.733 1372.707 1372.673 1372.666 1372.656 1372.628 1372.591 1372.558 1372.567 1372.508 1372.495 1372.488 1372.495 1372.471 1372.455 1372.432 1372.369 1372.288 1372.198 1372.111 1372.09 1372.055 1371.994 1371.908 1371.847 1371.807 1371.752 1371.724 1371.756 1371.781 1371.732 1371.65 1371.65 1371.579 1371.554 -9999 -9999 -9999 -9999 -9999 -9999 -9999 -9999 -9999 -9999 -9999 -9999 -9999 -9999 -9999 -9999 -9999 -9999 -9999 -9999 -9999 -9999 -9999 -9999 -9999 -9999 -9999 -9999 -9999 -9999 -9999 -9999 -9999 -9999 -9999 -9999 -9999 -9999 -9999 -9999 -9999 -9999 -9999
-9999 -9999 -9999 -9999 -9999 -9999 1363.888 1363.906 1363.896 1363.853 1363.805 1363.779 1363.743 1363.741 1363.715 1363.757 1363.706 1363.659 1363.618 1363.585 1363.579 1363.565 1363.483 1363.458 1363.593 1363.788 1363.87 1364.021 1364.197 1364.32 1364.442 1364.551 1364.599 1364.645 1364.603 1364.562 1364.501 1364.433 1364.385 1364.324 1364.189 1364.099 1364.015 1363.921 1363.803 1363.675 1363.556 1363.494 1363.537 1363.703 1363.996 1364.248 1364.425 1364.538 1364.707 1364.891 1365.013 1365.177 1365.264 1365.253 1365.226 1365.206 1365.191 1365.151 1365.037 1364.934 1364.892 1364.837 1364.751 1364.649 1364.552 1364.492 1364.443 1364.378 1364.25 1364.092 1364.042 1364.165 1364.122 1363.991 1364.107 1364.202 1364.265 1364.336 1364.452 1364.558 1364.533 1364.682 1364.766 1364.794 1364.764 1364.769 1364.743 1364.65 1364.576 1364.51 1364.429 1364.22 1364.097 1364.246 1364.36 1364.509 1364.598 1364.53 1364.411 1364.265 1364.183 1363.965 1363.772 1363.615 1363.615 1363.669 1363.694 1363.75 1363.776 1363.798 1363.845 1363.888 1363.924 1364.051 1364.29 1364.202 1364.141 1364.102 1364.241 1364.43 1364.582 1364.934 1365.258 1365.487 1365.523 1365.558 1365.651 1365.69 1365.72 1365.754 1365.802 1365.923 1366.031 1366.113 1366.19 1366.252 1366.4 1366.517 1366.574 1366.681 1366.736 1366.774 1366.871 1366.871 1366.881 1366.913 1366.985 1367.01 1367.08 1367.185 1367.347 1367.542 1367.675 1367.711 1367.833 1367.984 1368.047 1368.101 1368.186 1368.298 1368.341 1368.354 1368.413 1368.495 1368.53 1368.556 1368.605 1368.645 1368.696 1368.714 1368.808 1368.864 1368.891 1368.951 1368.993 1369.014 1369.03 1369.076 1369.136 1369.163 1369.217 1369.291 1369.323 1369.367 1369.423 1369.465 1369.538 1369.586 1369.626 1369.666 1369.684 1369.76 1369.796 1369.8 1369.807 1369.826 1369.837 1369.875 1369.976 1370.038 1370.057 1370.099 1370.131 1370.195 1370.226 1370.256 1370.303 1370.337 1370.391 1370.438 1370.493 1370.531 1370.566 1370.596 1370.633 1370.709 1370.767 1370.817 1370.866 1370.905 1370.919 1370.967 1371 1371.018 1371.018 1371.064 1371.047 1371.007 1371.052 1371.059 1371.099 1371.089 1371.087 1371.107 1371.097 1371.084 1371.083 1371.094 1371.11 1371.132 1371.137 1371.137 1371.188 1371.206 1371.206 1371.235 1371.23 1371.258 1371.263 1371.258 1371.207 1371.194 1371.206 1371.196 1371.21 1371.287 1371.317 1371.33 1371.386 1371.509 1371.661 1371.736 1371.823 1371.855 1371.922 1371.965 1372.001 1372.06 1372.122 1372.143 1372.224 1372.298 1372.359 1372.427 1372.487 1372.565 1372.62 1372.641 1372.626 1372.684 1372.69 1372.738 1372.782 1372.802 1372.773 1372.782 1372.798 1372.779 1372.766 1372.721 1372.719 1372.716 1372.718 1372.715 1372.682 1372.677 1372.682 1372.672 1372.634 1372.61 1372.597 1372.574 1372.561 1372.547 1372.504 1372.464 1372.45 1372.439 1372.445 1372.416 1372.427 1372.372 1372.312 1372.215 1372.121 1372.044 1372.007 1371.976 1371.94 1371.842 1371.792 1371.76 1371.709 1371.66 1371.68 1371.721 1371.694 1371.61 1371.536 1371.496 -9999 -9999 -9999 -9999 -9999 -9999 -9999 -9999 -9999 -9999 -9999 -9999 -9999 -9999 -9999 -9999 -9999 -9999 -9999 -9999 -9999 -9999 -9999 -9999 -9999 -9999 -9999 -9999 -9999 -9999 -9999 -9999 -9999 -9999 -9999 -9999 -9999 -9999 -9999 -9999 -9999 -9999 -9999 -9999
-9999 -9999 -9999 -9999 -9999 -9999 1363.79 1363.8 1363.8 1363.762 1363.73 1363.702 1363.649 1363.623 1363.604 1363.622 1363.587 1363.513 1363.498 1363.494 1363.482 1363.41 1363.361 1363.368 1363.517 1363.67 1363.771 1363.951 1364.125 1364.284 1364.453 1364.585 1364.672 1364.677 1364.614 1364.547 1364.481 1364.37 1364.316 1364.245 1364.153 1364.02 1363.885 1363.822 1363.699 1363.602 1363.479 1363.386 1363.499 1363.727 1364.029 1364.283 1364.46 1364.569 1364.762 1364.998 1365.137 1365.261 1365.311 1365.28 1365.221 1365.201 1365.18 1365.131 1365.02 1364.907 1364.865 1364.826 1364.779 1364.644 1364.536 1364.477 1364.393 1364.338 1364.247 1364.121 1364.016 1364.113 1364.122 1363.993 1363.99 1364.101 1364.173 1364.252 1364.309 1364.391 1364.413 1364.516 1364.567 1364.568 1364.569 1364.563 1364.509 1364.38 1364.224 1364.095 1364.015 1364.084 1364.323 1364.436 1364.454 1364.424 1364.28 1364.119 1364.153 1363.949 1363.823 1363.703 1363.565 1363.549 1363.607 1363.698 1363.721 1363.751 1363.783 1363.824 1363.858 1363.915 1363.945 1363.999 1364.026 1364.081 1364.178 1364.279 1364.449 1364.636 1364.804 1365.076 1365.335 1365.488 1365.527 1365.585 1365.709 1365.738 1365.777 1365.839 1365.886 1366.004 1366.106 1366.186 1366.295 1366.424 1366.551 1366.625 1366.684 1366.78 1366.824 1366.891 1366.986 1367.008 1367.037 1367.074 1367.095 1367.151 1367.205 1367.237 1367.316 1367.506 1367.628 1367.719 1367.885 1368.059 1368.083 1368.172 1368.232 1368.311 1368.388 1368.442 1368.506 1368.524 1368.55 1368.586 1368.642 1368.659 1368.712 1368.751 1368.786 1368.862 1368.922 1368.958 1369.009 1369.033 1369.054 1369.083 1369.153 1369.177 1369.218 1369.301 1369.35 1369.392 1369.443 1369.499 1369.564 1369.593 1369.628 1369.658 1369.686 1369.741 1369.755 1369.78 1369.788 1369.808 1369.846 1369.935 1369.979 1370.01 1370.041 1370.101 1370.137 1370.201 1370.219 1370.23 1370.317 1370.365 1370.404 1370.462 1370.527 1370.573 1370.585 1370.615 1370.674 1370.75 1370.809 1370.867 1370.878 1370.888 1370.943 1370.977 1370.982 1370.974 1370.981 1370.954 1370.936 1370.961 1370.956 1371.001 1371.043 1371.025 1371.041 1371.078 1371.067 1371.048 1371.016 1371.008 1371.045 1371.057 1371.081 1371.075 1371.099 1371.124 1371.121 1371.133 1371.127 1371.151 1371.143 1371.127 1371.093 1371.079 1371.069 1371.017 1371.054 1371.143 1371.162 1371.211 1371.331 1371.511 1371.619 1371.683 1371.741 1371.796 1371.846 1371.908 1371.938 1372.013 1372.093 1372.148 1372.195 1372.273 1372.354 1372.393 1372.478 1372.539 1372.57 1372.588 1372.576 1372.599 1372.644 1372.661 1372.675 1372.693 1372.697 1372.7 1372.692 1372.688 1372.672 1372.664 1372.673 1372.663 1372.681 1372.68 1372.661 1372.661 1372.648 1372.635 1372.59 1372.57 1372.546 1372.523 1372.497 1372.476 1372.432 1372.382 1372.374 1372.393 1372.404 1372.376 1372.37 1372.33 1372.232 1372.135 1372.051 1371.989 1371.938 1371.909 1371.842 1371.769 1371.724 1371.685 1371.65 1371.619 1371.607 1371.608 1371.567 1371.485 1371.467 1371.423 -9999 -9999 -9999 -9999 -9999 -9999 -9999 -9999 -9999 -9999 -9999 -9999 -9999 -9999 -9999 -9999 -9999 -9999 -9999 -9999 -9999 -9999 -9999 -9999 -9999 -9999 -9999 -9999 -9999 -9999 -9999 -9999 -9999 -9999 -9999 -9999 -9999 -9999 -9999 -9999 -9999 -9999 -9999 -9999
-9999 -9999 -9999 -9999 -9999 -9999 1363.704 1363.685 1363.712 1363.705 1363.654 1363.648 1363.611 1363.533 1363.5 1363.497 1363.474 1363.424 1363.407 1363.412 1363.41 1363.328 1363.284 1363.286 1363.456 1363.564 1363.748 1363.937 1364.137 1364.281 1364.458 1364.637 1364.693 1364.679 1364.604 1364.546 1364.472 1364.346 1364.283 1364.18 1364.064 1363.913 1363.786 1363.725 1363.612 1363.467 1363.309 1363.309 1363.502 1363.784 1364.031 1364.241 1364.452 1364.642 1364.863 1365.047 1365.188 1365.277 1365.29 1365.273 1365.223 1365.197 1365.17 1365.093 1364.999 1364.901 1364.817 1364.783 1364.742 1364.637 1364.547 1364.48 1364.394 1364.325 1364.246 1364.13 1363.994 1364.065 1364.079 1364.043 1363.962 1364.011 1364.12 1364.192 1364.221 1364.277 1364.327 1364.416 1364.449 1364.444 1364.451 1364.404 1364.355 1364.186 1363.94 1363.934 1364.012 1364.26 1364.41 1364.425 1364.365 1364.177 1363.925 1363.764 1363.661 1363.588 1363.507 1363.484 1363.535 1363.581 1363.605 1363.781 1363.774 1363.786 1363.818 1363.815 1363.871 1363.856 1363.845 1363.97 1364.147 1364.374 1364.539 1364.526 1364.671 1364.865 1365.057 1365.247 1365.372 1365.446 1365.512 1365.651 1365.735 1365.771 1365.841 1365.903 1365.967 1366.073 1366.185 1366.279 1366.413 1366.562 1366.683 1366.748 1366.806 1366.883 1366.944 1367.024 1367.11 1367.141 1367.195 1367.23 1367.238 1367.283 1367.336 1367.343 1367.362 1367.484 1367.642 1367.789 1367.898 1368.022 1368.086 1368.169 1368.255 1368.341 1368.413 1368.472 1368.533 1368.546 1368.589 1368.628 1368.674 1368.729 1368.762 1368.806 1368.803 1368.885 1368.941 1369.01 1369.054 1369.06 1369.098 1369.128 1369.18 1369.202 1369.25 1369.266 1369.325 1369.382 1369.454 1369.54 1369.578 1369.597 1369.633 1369.666 1369.71 1369.742 1369.751 1369.796 1369.801 1369.816 1369.869 1369.958 1369.991 1370.028 1370.056 1370.104 1370.14 1370.203 1370.242 1370.262 1370.349 1370.403 1370.435 1370.473 1370.526 1370.587 1370.618 1370.649 1370.726 1370.776 1370.842 1370.87 1370.873 1370.891 1370.931 1370.941 1370.943 1370.96 1370.963 1370.925 1370.887 1370.913 1370.929 1370.934 1370.954 1370.944 1370.987 1371.016 1371.004 1370.963 1370.93 1370.914 1370.937 1370.942 1370.972 1371 1370.97 1370.992 1371.021 1370.992 1370.931 1371.018 1370.996 1370.975 1370.986 1370.932 1370.867 1370.822 1370.919 1371.017 1371.072 1371.124 1371.263 1371.466 1371.571 1371.627 1371.725 1371.793 1371.823 1371.882 1371.905 1372 1372.085 1372.122 1372.18 1372.269 1372.339 1372.387 1372.461 1372.495 1372.514 1372.527 1372.532 1372.554 1372.584 1372.609 1372.629 1372.627 1372.639 1372.63 1372.639 1372.641 1372.623 1372.613 1372.62 1372.61 1372.602 1372.636 1372.643 1372.64 1372.592 1372.589 1372.554 1372.514 1372.503 1372.474 1372.441 1372.394 1372.379 1372.356 1372.341 1372.333 1372.302 1372.271 1372.248 1372.231 1372.172 1372.095 1372.001 1371.911 1371.827 1371.804 1371.749 1371.68 1371.62 1371.598 1371.559 1371.536 1371.498 1371.482 1371.417 1371.371 1371.465 -9999 -9999 -9999 -9999 -9999 -9999 -9999 -9999 -9999 -9999 -9999 -9999 -9999 -9999 -9999 -9999 -9999 -9999 -9999 -9999 -9999 -9999 -9999 -9999 -9999 -9999 -9999 -9999 -9999 -9999 -9999 -9999 -9999 -9999 -9999 -9999 -9999 -9999 -9999 -9999 -9999 -9999 -9999 -9999 -9999
-9999 -9999 -9999 -9999 -9999 -9999 1363.615 1363.614 1363.607 1363.599 1363.583 1363.553 1363.526 1363.455 1363.393 1363.349 1363.328 1363.338 1363.34 1363.273 1363.304 1363.272 1363.255 1363.31 1363.411 1363.577 1363.745 1363.919 1364.117 1364.281 1364.453 1364.635 1364.679 1364.66 1364.605 1364.527 1364.408 1364.296 1364.201 1364.088 1363.951 1363.819 1363.725 1363.573 1363.51 1363.422 1363.263 1363.305 1363.592 1363.827 1364.046 1364.233 1364.443 1364.649 1364.857 1365.056 1365.149 1365.22 1365.2 1365.213 1365.179 1365.155 1365.152 1365.091 1365.02 1364.894 1364.801 1364.759 1364.699 1364.638 1364.562 1364.464 1364.378 1364.307 1364.224 1364.086 1363.967 1363.998 1364.056 1364.038 1363.949 1363.983 1364.072 1364.132 1364.169 1364.21 1364.257 1364.312 1364.346 1364.347 1364.281 1364.228 1364.138 1363.95 1363.809 1364.128 1364.236 1364.348 1364.404 1364.365 1364.134 1363.87 1363.641 1363.549 1363.48 1363.465 1363.605 1363.765 1363.807 1363.737 1363.717 1363.773 1363.854 1363.998 1364.112 1364.145 1364.173 1364.183 1364.069 1364.128 1364.281 1364.573 1364.97 1365.142 1365.125 1365.283 1365.305 1365.391 1365.412 1365.446 1365.566 1365.686 1365.746 1365.805 1365.884 1366.004 1366.127 1366.2 1366.276 1366.401 1366.53 1366.724 1366.823 1366.878 1366.944 1367.011 1367.086 1367.177 1367.223 1367.272 1367.325 1367.36 1367.369 1367.404 1367.434 1367.424 1367.441 1367.5 1367.684 1367.802 1367.928 1368.055 1368.1 1368.176 1368.288 1368.381 1368.447 1368.499 1368.527 1368.551 1368.588 1368.637 1368.691 1368.767 1368.783 1368.827 1368.856 1368.909 1368.954 1369.047 1369.085 1369.11 1369.146 1369.188 1369.198 1369.22 1369.28 1369.32 1369.383 1369.461 1369.504 1369.517 1369.537 1369.579 1369.624 1369.661 1369.716 1369.746 1369.766 1369.781 1369.798 1369.85 1369.898 1369.966 1370.019 1370.06 1370.101 1370.123 1370.155 1370.213 1370.254 1370.307 1370.354 1370.388 1370.467 1370.493 1370.52 1370.601 1370.644 1370.689 1370.746 1370.784 1370.841 1370.863 1370.864 1370.867 1370.907 1370.893 1370.885 1370.941 1370.949 1370.9 1370.856 1370.862 1370.886 1370.894 1370.9 1370.876 1370.91 1370.971 1370.921 1370.888 1370.867 1370.856 1370.854 1370.852 1370.865 1370.916 1370.92 1370.905 1370.898 1370.87 1370.812 1370.809 1370.802 1370.75 1370.729 1370.711 1370.654 1370.658 1370.734 1370.816 1370.855 1371.028 1371.192 1371.357 1371.511 1371.607 1371.707 1371.771 1371.794 1371.868 1371.899 1371.974 1372.053 1372.099 1372.208 1372.239 1372.323 1372.363 1372.424 1372.447 1372.464 1372.49 1372.499 1372.522 1372.547 1372.55 1372.576 1372.591 1372.593 1372.566 1372.56 1372.583 1372.581 1372.571 1372.594 1372.592 1372.59 1372.586 1372.581 1372.58 1372.564 1372.536 1372.502 1372.461 1372.456 1372.433 1372.407 1372.355 1372.33 1372.35 1372.358 1372.327 1372.268 1372.219 1372.189 1372.152 1372.088 1371.983 1371.884 1371.841 1371.765 1371.725 1371.65 1371.593 1371.532 1371.497 1371.501 1371.427 1371.367 1371.362 1371.315 1371.3 -9999 -9999 -9999 -9999 -9999 -9999 -9999 -9999 -9999 -9999 -9999 -9999 -9999 -9999 -9999 -9999 -9999 -9999 -9999 -9999 -9999 -9999 -9999 -9999 -9999 -9999 -9999 -9999 -9999 -9999 -9999 -9999 -9999 -9999 -9999 -9999 -9999 -9999 -9999 -9999 -9999 -9999 -9999 -9999 -9999 -9999
-9999 -9999 -9999 -9999 -9999 -9999 1363.531 1363.542 1363.507 1363.481 1363.461 1363.419 1363.355 1363.289 1363.2 1363.165 1363.134 1363.167 1363.197 1363.165 1363.124 1363.113 1363.144 1363.271 1363.443 1363.592 1363.736 1363.938 1364.127 1364.288 1364.457 1364.601 1364.685 1364.659 1364.578 1364.473 1364.397 1364.249 1364.151 1364.03 1363.887 1363.745 1363.673 1363.513 1363.422 1363.334 1363.244 1363.376 1363.655 1363.858 1364.043 1364.24 1364.454 1364.661 1364.867 1365.035 1365.113 1365.18 1365.163 1365.17 1365.157 1365.123 1365.119 1365.081 1365.018 1364.912 1364.776 1364.743 1364.698 1364.616 1364.539 1364.435 1364.348 1364.247 1364.153 1364.044 1363.892 1363.925 1364.016 1363.982 1363.886 1363.858 1363.904 1364.014 1364.095 1364.128 1364.17 1364.209 1364.293 1364.268 1364.073 1364.015 1363.877 1363.79 1364.101 1364.287 1364.333 1364.372 1364.312 1364.024 1363.789 1363.591 1363.47 1363.444 1363.45 1363.65 1364.154 1364.353 1364.327 1364.109 1364.042 1364.062 1364.165 1364.357 1364.453 1364.58 1364.521 1364.501 1364.328 1364.278 1364.364 1364.62 1364.998 1365.261 1365.351 1365.421 1365.437 1365.465 1365.561 1365.621 1365.684 1365.722 1365.761 1365.845 1365.945 1366.083 1366.232 1366.323 1366.469 1366.584 1366.697 1366.862 1366.959 1367.037 1367.117 1367.163 1367.243 1367.318 1367.374 1367.437 1367.476 1367.498 1367.535 1367.565 1367.536 1367.512 1367.542 1367.609 1367.695 1367.833 1368 1368.042 1368.13 1368.223 1368.323 1368.42 1368.476 1368.517 1368.538 1368.583 1368.642 1368.674 1368.706 1368.787 1368.836 1368.877 1368.878 1368.932 1368.992 1369.063 1369.11 1369.148 1369.178 1369.204 1369.215 1369.241 1369.278 1369.351 1369.422 1369.497 1369.52 1369.539 1369.575 1369.619 1369.631 1369.66 1369.693 1369.737 1369.76 1369.787 1369.799 1369.857 1369.958 1369.992 1370.073 1370.091 1370.129 1370.142 1370.185 1370.238 1370.26 1370.327 1370.389 1370.414 1370.497 1370.544 1370.575 1370.619 1370.655 1370.705 1370.767 1370.796 1370.832 1370.825 1370.815 1370.85 1370.854 1370.843 1370.838 1370.857 1370.879 1370.833 1370.826 1370.816 1370.815 1370.831 1370.836 1370.839 1370.873 1370.888 1370.802 1370.774 1370.745 1370.778 1370.777 1370.754 1370.761 1370.807 1370.816 1370.801 1370.771 1370.734 1370.697 1370.675 1370.623 1370.597 1370.576 1370.548 1370.489 1370.524 1370.533 1370.654 1370.824 1371.011 1371.168 1371.307 1371.455 1371.561 1371.629 1371.685 1371.734 1371.832 1371.906 1371.934 1371.989 1372.081 1372.172 1372.196 1372.322 1372.35 1372.353 1372.375 1372.393 1372.383 1372.398 1372.444 1372.49 1372.493 1372.517 1372.547 1372.555 1372.507 1372.528 1372.547 1372.528 1372.553 1372.585 1372.592 1372.561 1372.534 1372.526 1372.526 1372.53 1372.497 1372.483 1372.439 1372.423 1372.404 1372.385 1372.306 1372.278 1372.296 1372.298 1372.274 1372.204 1372.155 1372.111 1372.062 1371.988 1371.905 1371.839 1371.762 1371.708 1371.677 1371.628 1371.532 1371.464 1371.436 1371.426 1371.327 1371.264 1371.292 1371.259 1371.214 -9999 -9999 -9999 -9999 -9999 -9999 -9999 -9999 -9999 -9999 -9999 -9999 -9999 -9999 -9999 -9999 -9999 -9999 -9999 -9999 -9999 -9999 -9999 -9999 -9999 -9999 -9999 -9999 -9999 -9999 -9999 -9999 -9999 -9999 -9999 -9999 -9999 -9999 -9999 -9999 -9999 -9999 -9999 -9999 -9999 -9999
-9999 -9999 -9999 -9999 -9999 -9999 1363.462 1363.507 1363.471 1363.434 1363.397 1363.364 1363.281 1363.198 1363.131 1363.07 1363.029 1363.046 1363.078 1363.012 1362.969 1362.996 1363.134 1363.283 1363.448 1363.611 1363.781 1363.965 1364.178 1364.372 1364.511 1364.584 1364.644 1364.615 1364.512 1364.423 1364.371 1364.254 1364.089 1363.983 1363.859 1363.727 1363.623 1363.418 1363.302 1363.159 1363.173 1363.455 1363.695 1363.872 1364.054 1364.235 1364.445 1364.652 1364.871 1365.009 1365.085 1365.084 1365.111 1365.121 1365.108 1365.093 1365.076 1365.064 1364.99 1364.925 1364.803 1364.74 1364.703 1364.627 1364.529 1364.411 1364.316 1364.231 1364.135 1363.998 1363.883 1363.933 1364.025 1363.984 1363.856 1363.787 1363.792 1363.954 1364.048 1364.071 1364.08 1364.068 1364.035 1363.982 1363.756 1363.689 1363.815 1364.081 1364.297 1364.271 1364.067 1363.911 1363.903 1363.501 1363.39 1363.395 1363.5 1363.712 1363.965 1364.018 1364.521 1364.677 1364.641 1364.526 1364.483 1364.561 1364.577 1364.698 1364.78 1364.893 1364.881 1364.82 1364.721 1364.666 1364.68 1364.543 1364.727 1365.217 1365.431 1365.486 1365.507 1365.541 1365.607 1365.702 1365.71 1365.724 1365.796 1365.908 1366.014 1366.144 1366.314 1366.514 1366.598 1366.705 1366.816 1366.946 1367.052 1367.116 1367.171 1367.269 1367.344 1367.431 1367.494 1367.54 1367.581 1367.595 1367.627 1367.636 1367.677 1367.69 1367.757 1367.809 1367.883 1367.957 1368.041 1368.075 1368.19 1368.309 1368.393 1368.477 1368.491 1368.514 1368.595 1368.64 1368.718 1368.75 1368.746 1368.794 1368.874 1368.905 1368.925 1368.967 1369.006 1369.075 1369.108 1369.159 1369.21 1369.233 1369.242 1369.287 1369.31 1369.38 1369.417 1369.479 1369.515 1369.553 1369.597 1369.624 1369.619 1369.663 1369.696 1369.745 1369.773 1369.787 1369.808 1369.922 1370.003 1370.014 1370.075 1370.128 1370.17 1370.161 1370.213 1370.267 1370.289 1370.343 1370.412 1370.458 1370.5 1370.571 1370.594 1370.627 1370.674 1370.715 1370.758 1370.787 1370.801 1370.801 1370.802 1370.768 1370.756 1370.741 1370.723 1370.737 1370.73 1370.736 1370.745 1370.753 1370.749 1370.714 1370.735 1370.774 1370.778 1370.798 1370.742 1370.699 1370.662 1370.692 1370.701 1370.667 1370.679 1370.7 1370.701 1370.706 1370.642 1370.594 1370.557 1370.516 1370.5 1370.483 1370.412 1370.41 1370.397 1370.402 1370.397 1370.583 1370.822 1370.954 1371.092 1371.219 1371.35 1371.476 1371.561 1371.636 1371.733 1371.829 1371.878 1371.907 1371.969 1372.046 1372.148 1372.241 1372.319 1372.327 1372.325 1372.323 1372.375 1372.365 1372.338 1372.37 1372.391 1372.408 1372.433 1372.445 1372.496 1372.47 1372.458 1372.476 1372.471 1372.5 1372.525 1372.517 1372.458 1372.463 1372.462 1372.461 1372.443 1372.469 1372.447 1372.405 1372.393 1372.367 1372.348 1372.266 1372.219 1372.189 1372.165 1372.137 1372.099 1372.072 1372.049 1371.971 1371.874 1371.834 1371.771 1371.709 1371.633 1371.624 1371.575 1371.44 1371.383 1371.362 1371.348 1371.253 1371.183 1371.2 1371.193 -9999 -9999 -9999 -9999 -9999 -9999 -9999 -9999 -9999 -9999 -9999 -9999 -9999 -9999 -9999 -9999 -9999 -9999 -9999 -9999 -9999 -9999 -9999 -9999 -9999 -9999 -9999 -9999 -9999 -9999 -9999 -9999 -9999 -9999 -9999 -9999 -9999 -9999 -9999 -9999 -9999 -9999 -9999 -9999 -9999 -9999 -9999
-9999 -9999 -9999 -9999 -9999 -9999 -9999 1363.424 1363.414 1363.395 1363.369 1363.293 1363.206 1363.151 1363.059 1362.964 1362.927 1362.95 1362.932 1362.875 1362.976 1363.114 1363.187 1363.317 1363.49 1363.682 1363.81 1363.987 1364.193 1364.408 1364.53 1364.588 1364.619 1364.575 1364.484 1364.392 1364.318 1364.2 1364.026 1363.887 1363.775 1363.675 1363.538 1363.296 1363.075 1363.168 1363.39 1363.604 1363.782 1363.893 1364.071 1364.255 1364.438 1364.661 1364.892 1364.975 1365.049 1365.049 1365.071 1365.067 1365.061 1365.065 1365.048 1365.057 1364.99 1364.915 1364.845 1364.751 1364.703 1364.617 1364.506 1364.423 1364.355 1364.208 1364.055 1363.885 1363.82 1363.945 1364.024 1363.949 1363.819 1363.724 1363.746 1363.915 1363.996 1364.004 1363.985 1363.914 1363.815 1363.761 1363.727 1363.819 1363.979 1364.171 1364.274 1364.141 1363.818 1363.556 1363.438 1363.374 1363.433 1363.544 1363.772 1363.983 1364.261 1364.493 1364.677 1364.789 1364.816 1364.811 1364.825 1364.886 1364.941 1365.082 1365.128 1365.165 1365.236 1365.209 1365.187 1365.212 1365.259 1365.155 1364.707 1364.962 1365.383 1365.498 1365.558 1365.601 1365.639 1365.691 1365.711 1365.771 1365.876 1365.991 1366.126 1366.261 1366.395 1366.577 1366.657 1366.826 1366.967 1367.064 1367.159 1367.224 1367.276 1367.362 1367.429 1367.488 1367.567 1367.624 1367.677 1367.695 1367.727 1367.735 1367.781 1367.812 1367.898 1367.947 1368.02 1368.065 1368.118 1368.138 1368.21 1368.337 1368.405 1368.472 1368.494 1368.533 1368.574 1368.637 1368.724 1368.794 1368.82 1368.861 1368.894 1368.923 1368.979 1369.015 1369.055 1369.114 1369.14 1369.202 1369.236 1369.268 1369.288 1369.33 1369.382 1369.448 1369.431 1369.458 1369.506 1369.545 1369.586 1369.615 1369.642 1369.689 1369.73 1369.75 1369.794 1369.811 1369.849 1369.953 1370.03 1370.025 1370.084 1370.142 1370.195 1370.18 1370.23 1370.255 1370.31 1370.369 1370.438 1370.504 1370.527 1370.586 1370.601 1370.635 1370.677 1370.715 1370.753 1370.758 1370.768 1370.763 1370.75 1370.702 1370.696 1370.699 1370.687 1370.675 1370.658 1370.674 1370.683 1370.68 1370.687 1370.667 1370.667 1370.692 1370.671 1370.649 1370.615 1370.556 1370.538 1370.551 1370.552 1370.53 1370.533 1370.541 1370.531 1370.543 1370.429 1370.378 1370.307 1370.213 1370.288 1370.295 1370.27 1370.207 1370.169 1370.195 1370.295 1370.501 1370.723 1370.856 1370.972 1371.097 1371.237 1371.426 1371.55 1371.632 1371.731 1371.77 1371.825 1371.907 1371.959 1372.013 1372.124 1372.201 1372.231 1372.238 1372.28 1372.282 1372.33 1372.343 1372.317 1372.346 1372.365 1372.374 1372.374 1372.381 1372.428 1372.41 1372.412 1372.417 1372.438 1372.458 1372.452 1372.428 1372.433 1372.42 1372.389 1372.405 1372.385 1372.385 1372.35 1372.361 1372.318 1372.302 1372.272 1372.229 1372.149 1372.111 1372.021 1371.957 1371.971 1371.953 1371.934 1371.882 1371.754 1371.71 1371.664 1371.589 1371.557 1371.51 1371.446 1371.324 1371.28 1371.274 1371.245 1371.202 1371.151 1371.106 1371.094 -9999 -9999 -9999 -9999 -9999 -9999 -9999 -9999 -9999 -9999 -9999 -9999 -9999 -9999 -9999 -9999 -9999 -9999 -9999 -9999 -9999 -9999 -9999 -9999 -9999 -9999 -9999 -9999 -9999 -9999 -9999 -9999 -9999 -9999 -9999 -9999 -9999 -9999 -9999 -9999 -9999 -9999 -9999 -9999 -9999 -9999 -9999
-9999 -9999 -9999 -9999 -9999 -9999 -9999 1363.362 1363.344 1363.348 1363.307 1363.25 1363.146 1363.083 1362.999 1362.862 1362.832 1362.844 1362.841 1362.92 1363.044 1363.177 1363.248 1363.359 1363.527 1363.701 1363.841 1364.021 1364.236 1364.436 1364.544 1364.577 1364.592 1364.558 1364.454 1364.362 1364.274 1364.156 1363.958 1363.836 1363.729 1363.622 1363.431 1363.172 1363.054 1363.163 1363.406 1363.568 1363.821 1363.945 1364.093 1364.266 1364.458 1364.672 1364.878 1364.929 1364.933 1364.97 1364.979 1364.972 1364.989 1364.976 1365.015 1365.03 1365.006 1364.94 1364.891 1364.78 1364.701 1364.647 1364.543 1364.425 1364.33 1364.183 1363.966 1363.826 1363.782 1363.954 1363.973 1363.894 1363.733 1363.608 1363.745 1363.925 1364.01 1363.997 1363.847 1363.698 1363.614 1363.599 1363.864 1364.072 1364.106 1364.095 1364.132 1363.885 1363.558 1363.345 1363.339 1363.465 1363.656 1363.772 1364.028 1364.245 1364.434 1364.545 1364.644 1364.77 1364.807 1364.842 1364.902 1364.973 1365.045 1365.238 1365.343 1365.418 1365.454 1365.394 1365.332 1365.373 1365.431 1365.41 1365.187 1364.973 1365.021 1365.432 1365.611 1365.687 1365.717 1365.754 1365.821 1365.887 1366.026 1366.143 1366.282 1366.454 1366.6 1366.725 1366.79 1366.944 1367.075 1367.167 1367.23 1367.318 1367.378 1367.43 1367.475 1367.538 1367.615 1367.689 1367.748 1367.796 1367.835 1367.853 1367.875 1367.92 1367.998 1368.061 1368.137 1368.164 1368.199 1368.234 1368.262 1368.34 1368.409 1368.473 1368.511 1368.591 1368.601 1368.681 1368.733 1368.781 1368.842 1368.878 1368.916 1368.968 1369.008 1369.033 1369.086 1369.154 1369.19 1369.231 1369.209 1369.278 1369.313 1369.342 1369.392 1369.463 1369.503 1369.511 1369.519 1369.526 1369.568 1369.617 1369.683 1369.724 1369.743 1369.768 1369.795 1369.813 1369.882 1369.974 1370.062 1370.105 1370.13 1370.159 1370.198 1370.191 1370.223 1370.284 1370.355 1370.401 1370.467 1370.542 1370.546 1370.592 1370.627 1370.652 1370.656 1370.7 1370.73 1370.719 1370.702 1370.71 1370.682 1370.656 1370.643 1370.647 1370.651 1370.612 1370.585 1370.598 1370.599 1370.622 1370.621 1370.609 1370.572 1370.593 1370.592 1370.574 1370.569 1370.507 1370.453 1370.466 1370.455 1370.434 1370.436 1370.422 1370.401 1370.378 1370.301 1370.233 1370.191 1370.105 1370.035 1370.041 1370.057 1369.977 1369.928 1369.988 1370.136 1370.302 1370.503 1370.59 1370.697 1370.902 1371.141 1371.356 1371.526 1371.553 1371.683 1371.774 1371.792 1371.864 1371.909 1371.992 1372.085 1372.125 1372.134 1372.169 1372.206 1372.234 1372.237 1372.257 1372.26 1372.282 1372.306 1372.329 1372.34 1372.339 1372.356 1372.374 1372.382 1372.383 1372.394 1372.413 1372.423 1372.387 1372.401 1372.382 1372.366 1372.346 1372.34 1372.338 1372.312 1372.328 1372.289 1372.249 1372.22 1372.202 1372.15 1372.099 1371.977 1371.891 1371.867 1371.853 1371.821 1371.801 1371.682 1371.597 1371.55 1371.515 1371.397 1371.318 1371.264 1371.235 1371.172 1371.126 1371.147 1371.167 -9999 -9999 -9999 -9999 -9999 -9999 -9999 -9999 -9999 -9999 -9999 -9999 -9999 -9999 -9999 -9999 -9999 -9999 -9999 -9999 -9999 -9999 -9999 -9999 -9999 -9999 -9999 -9999 -9999 -9999 -9999 -9999 -9999 -9999 -9999 -9999 -9999 -9999 -9999 -9999 -9999 -9999 -9999 -9999 -9999 -9999 -9999 -9999 -9999 -9999
-9999 -9999 -9999 -9999 -9999 -9999 -9999 1363.302 1363.267 1363.263 1363.25 1363.197 1363.085 1363.013 1362.912 1362.764 1362.678 1362.794 1362.917 1363.03 1363.086 1363.208 1363.27 1363.403 1363.529 1363.699 1363.851 1364.082 1364.257 1364.436 1364.541 1364.575 1364.581 1364.518 1364.426 1364.316 1364.225 1364.1 1363.908 1363.771 1363.683 1363.592 1363.374 1363.138 1363.013 1363.252 1363.366 1363.58 1363.793 1363.982 1364.129 1364.274 1364.478 1364.684 1364.809 1364.872 1364.9 1364.902 1364.92 1364.924 1364.915 1364.935 1364.981 1365.016 1365.038 1365.049 1364.954 1364.833 1364.701 1364.642 1364.557 1364.443 1364.288 1364.14 1363.936 1363.77 1363.83 1363.912 1363.905 1363.727 1363.533 1363.623 1363.855 1363.986 1363.996 1363.903 1363.618 1363.483 1363.662 1363.77 1363.963 1364.063 1364.044 1363.921 1363.798 1363.613 1363.334 1363.339 1363.476 1363.698 1363.937 1364.129 1364.261 1364.413 1364.537 1364.595 1364.642 1364.74 1364.809 1364.894 1364.986 1365.064 1365.165 1365.342 1365.509 1365.592 1365.551 1365.489 1365.448 1365.443 1365.5 1365.508 1365.32 1365.185 1365.115 1365.365 1365.627 1365.733 1365.777 1365.826 1365.896 1365.992 1366.125 1366.25 1366.413 1366.596 1366.694 1366.813 1366.973 1367.067 1367.163 1367.227 1367.294 1367.36 1367.424 1367.485 1367.524 1367.576 1367.675 1367.745 1367.803 1367.87 1367.945 1367.958 1367.992 1367.999 1368.061 1368.135 1368.215 1368.242 1368.264 1368.295 1368.327 1368.388 1368.443 1368.481 1368.535 1368.62 1368.634 1368.716 1368.753 1368.791 1368.847 1368.9 1368.933 1368.977 1369.021 1369.043 1369.093 1369.174 1369.222 1369.223 1369.24 1369.296 1369.353 1369.385 1369.406 1369.463 1369.514 1369.511 1369.516 1369.545 1369.591 1369.64 1369.694 1369.745 1369.767 1369.776 1369.792 1369.829 1369.901 1369.972 1370.03 1370.097 1370.131 1370.158 1370.198 1370.22 1370.27 1370.311 1370.339 1370.386 1370.436 1370.48 1370.499 1370.577 1370.625 1370.645 1370.645 1370.646 1370.631 1370.631 1370.635 1370.654 1370.626 1370.623 1370.607 1370.577 1370.562 1370.513 1370.514 1370.511 1370.522 1370.543 1370.539 1370.527 1370.501 1370.512 1370.517 1370.498 1370.482 1370.456 1370.403 1370.371 1370.367 1370.348 1370.317 1370.284 1370.27 1370.241 1370.159 1370.062 1370.01 1369.939 1369.891 1369.899 1369.896 1369.837 1369.775 1369.867 1370.018 1370.221 1370.448 1370.605 1370.735 1370.985 1371.197 1371.361 1371.484 1371.533 1371.618 1371.719 1371.778 1371.849 1371.915 1371.971 1372.05 1372.064 1372.081 1372.106 1372.145 1372.172 1372.156 1372.172 1372.175 1372.204 1372.234 1372.274 1372.299 1372.309 1372.318 1372.344 1372.374 1372.356 1372.36 1372.374 1372.392 1372.371 1372.343 1372.344 1372.315 1372.294 1372.29 1372.27 1372.273 1372.291 1372.25 1372.201 1372.182 1372.173 1372.152 1372.062 1371.951 1371.866 1371.777 1371.761 1371.736 1371.702 1371.61 1371.535 1371.442 1371.443 1371.385 1371.292 1371.214 -9999 -9999 -9999 -9999 -9999 -9999 -9999 -9999 -9999 -9999 -9999 -9999 -9999 -9999 -9999 -9999 -9999 -9999 -9999 -9999 -9999 -9999 -9999 -9999 -9999 -9999 -9999 -9999 -9999 -9999 -9999 -9999 -9999 -9999 -9999 -9999 -9999 -9999 -9999 -9999 -9999 -9999 -9999 -9999 -9999 -9999 -9999 -9999 -9999 -9999 -9999 -9999 -9999 -9999 -9999
-9999 -9999 -9999 -9999 -9999 -9999 -9999 -9999 1363.205 1363.219 1363.214 1363.134 1363.042 1362.945 1362.864 1362.717 1362.655 1362.844 1362.931 1363.026 1363.103 1363.214 1363.333 1363.417 1363.606 1363.762 1363.917 1364.117 1364.34 1364.528 1364.559 1364.557 1364.529 1364.474 1364.369 1364.236 1364.11 1363.983 1363.841 1363.688 1363.622 1363.52 1363.342 1363.12 1363.002 1363.253 1363.388 1363.599 1363.777 1363.968 1364.108 1364.299 1364.482 1364.65 1364.761 1364.816 1364.849 1364.85 1364.868 1364.871 1364.876 1364.902 1364.946 1364.978 1365.008 1365.031 1365.01 1364.88 1364.717 1364.605 1364.519 1364.404 1364.236 1364.104 1363.956 1363.772 1363.677 1363.834 1363.864 1363.752 1363.534 1363.605 1363.809 1363.835 1363.791 1363.729 1363.538 1363.589 1363.825 1363.924 1363.934 1363.805 1363.61 1363.538 1363.352 1363.286 1363.471 1363.619 1363.848 1364.061 1364.276 1364.457 1364.541 1364.623 1364.633 1364.66 1364.662 1364.775 1364.889 1364.982 1365.076 1365.161 1365.254 1365.388 1365.572 1365.643 1365.603 1365.551 1365.54 1365.516 1365.577 1365.611 1365.544 1365.449 1365.365 1365.333 1365.589 1365.781 1365.86 1365.944 1366.009 1366.135 1366.298 1366.455 1366.574 1366.716 1366.789 1366.88 1367.032 1367.105 1367.217 1367.279 1367.335 1367.408 1367.481 1367.54 1367.58 1367.642 1367.732 1367.773 1367.838 1367.89 1367.964 1367.999 1368.021 1368.044 1368.125 1368.181 1368.238 1368.295 1368.353 1368.365 1368.414 1368.457 1368.484 1368.483 1368.557 1368.629 1368.643 1368.729 1368.777 1368.821 1368.863 1368.905 1368.942 1368.964 1369.013 1369.053 1369.109 1369.199 1369.219 1369.219 1369.296 1369.338 1369.359 1369.39 1369.423 1369.463 1369.503 1369.525 1369.555 1369.572 1369.612 1369.66 1369.711 1369.78 1369.778 1369.801 1369.798 1369.87 1369.935 1369.982 1370.034 1370.085 1370.117 1370.148 1370.182 1370.234 1370.295 1370.312 1370.344 1370.379 1370.431 1370.458 1370.494 1370.521 1370.578 1370.575 1370.608 1370.611 1370.59 1370.575 1370.57 1370.56 1370.528 1370.535 1370.506 1370.479 1370.431 1370.423 1370.428 1370.423 1370.416 1370.417 1370.397 1370.412 1370.39 1370.379 1370.402 1370.368 1370.355 1370.325 1370.283 1370.279 1370.255 1370.265 1370.238 1370.177 1370.143 1370.081 1370.012 1369.928 1369.862 1369.803 1369.79 1369.743 1369.713 1369.681 1369.774 1369.909 1370.107 1370.264 1370.509 1370.682 1370.838 1371.026 1371.236 1371.36 1371.434 1371.516 1371.576 1371.658 1371.753 1371.811 1371.87 1371.958 1372.01 1372.029 1372.095 1372.119 1372.129 1372.107 1372.106 1372.125 1372.138 1372.149 1372.214 1372.218 1372.229 1372.257 1372.26 1372.286 1372.328 1372.319 1372.31 1372.306 1372.298 1372.312 1372.294 1372.275 1372.28 1372.251 1372.231 1372.221 1372.241 1372.238 1372.214 1372.162 1372.118 1372.104 1372.135 1372.041 1371.934 1371.848 1371.775 1371.724 1371.683 1371.657 1371.54 1371.445 1371.37 -9999 -9999 -9999 -9999 -9999 -9999 -9999 -9999 -9999 -9999 -9999 -9999 -9999 -9999 -9999 -9999 -9999 -9999 -9999 -9999 -9999 -9999 -9999 -9999 -9999 -9999 -9999 -9999 -9999 -9999 -9999 -9999 -9999 -9999 -9999 -9999 -9999 -9999 -9999 -9999 -9999 -9999 -9999 -9999 -9999 -9999 -9999 -9999 -9999 -9999 -9999 -9999 -9999 -9999 -9999 -9999 -9999 -9999 -9999
-9999 -9999 -9999 -9999 -9999 -9999 -9999 -9999 1363.158 1363.184 1363.163 1363.071 1362.967 1362.874 1362.747 1362.616 1362.663 1362.836 1362.916 1362.987 1363.091 1363.23 1363.387 1363.47 1363.629 1363.793 1363.956 1364.169 1364.311 1364.457 1364.545 1364.529 1364.479 1364.467 1364.343 1364.176 1364.062 1363.946 1363.788 1363.631 1363.514 1363.386 1363.25 1363.041 1363.03 1363.371 1363.559 1363.658 1363.792 1363.997 1364.175 1364.334 1364.496 1364.628 1364.712 1364.757 1364.751 1364.775 1364.779 1364.807 1364.823 1364.856 1364.902 1364.938 1364.977 1364.993 1364.96 1364.873 1364.713 1364.541 1364.467 1364.364 1364.191 1364.046 1363.905 1363.746 1363.59 1363.737 1363.81 1363.696 1363.499 1363.542 1363.678 1363.676 1363.611 1363.522 1363.466 1363.652 1363.867 1363.852 1363.799 1363.581 1363.377 1363.297 1363.223 1363.402 1363.685 1363.922 1364.109 1364.279 1364.415 1364.477 1364.561 1364.612 1364.613 1364.658 1364.708 1364.822 1364.975 1365.069 1365.203 1365.309 1365.402 1365.481 1365.557 1365.632 1365.647 1365.661 1365.7 1365.704 1365.698 1365.735 1365.779 1365.717 1365.554 1365.441 1365.596 1365.766 1365.947 1366.088 1366.148 1366.286 1366.465 1366.581 1366.654 1366.774 1366.877 1366.971 1367.062 1367.184 1367.237 1367.302 1367.365 1367.43 1367.515 1367.592 1367.637 1367.684 1367.746 1367.831 1367.879 1367.929 1367.981 1368.048 1368.067 1368.107 1368.173 1368.223 1368.288 1368.351 1368.386 1368.377 1368.419 1368.475 1368.516 1368.511 1368.558 1368.618 1368.667 1368.73 1368.784 1368.831 1368.876 1368.905 1368.999 1369.034 1369.062 1369.078 1369.138 1369.201 1369.201 1369.239 1369.314 1369.331 1369.35 1369.398 1369.459 1369.48 1369.502 1369.545 1369.582 1369.589 1369.619 1369.676 1369.722 1369.754 1369.764 1369.785 1369.815 1369.916 1369.96 1369.994 1370.039 1370.083 1370.126 1370.167 1370.2 1370.242 1370.286 1370.357 1370.37 1370.382 1370.431 1370.433 1370.449 1370.479 1370.519 1370.534 1370.546 1370.571 1370.551 1370.527 1370.496 1370.49 1370.472 1370.46 1370.424 1370.415 1370.399 1370.336 1370.306 1370.304 1370.32 1370.309 1370.317 1370.347 1370.274 1370.251 1370.26 1370.236 1370.192 1370.158 1370.113 1370.106 1370.123 1370.121 1370.079 1370.005 1369.936 1369.888 1369.819 1369.736 1369.662 1369.56 1369.541 1369.57 1369.59 1369.688 1369.87 1369.989 1370.172 1370.371 1370.561 1370.733 1370.87 1371.037 1371.245 1371.371 1371.422 1371.484 1371.554 1371.634 1371.719 1371.823 1371.862 1371.905 1371.951 1372.001 1372.058 1372.096 1372.101 1372.066 1372.05 1372.066 1372.108 1372.142 1372.175 1372.202 1372.211 1372.217 1372.224 1372.267 1372.265 1372.289 1372.29 1372.27 1372.26 1372.263 1372.258 1372.229 1372.225 1372.229 1372.203 1372.175 1372.193 1372.182 1372.141 1372.114 1372.058 1371.992 1371.953 1371.895 1371.847 1371.777 1371.696 1371.635 1371.578 -9999 -9999 -9999 -9999 -9999 -9999 -9999 -9999 -9999 -9999 -9999 -9999 -9999 -9999 -9999 -9999 -9999 -9999 -9999 -9999 -9999 -9999 -9999 -9999 -9999 -9999 -9999 -9999 -9999 -9999 -9999 -9999 -9999 -9999 -9999 -9999 -9999 -9999 -9999 -9999 -9999 -9999 -9999 -9999 -9999 -9999 -9999 -9999 -9999 -9999 -9999 -9999 -9999 -9999 -9999 -9999 -9999 -9999 -9999 -9999 -9999 -9999 -9999
-9999 -9999 -9999 -9999 -9999 -9999 -9999 -9999 1363.113 1363.123 1363.106 1363.036 1362.893 1362.778 1362.657 1362.575 1362.748 1362.872 1362.904 1362.933 1363.075 1363.232 1363.457 1363.56 1363.607 1363.82 1364.02 1364.203 1364.333 1364.467 1364.531 1364.519 1364.457 1364.409 1364.291 1364.109 1363.982 1363.872 1363.732 1363.596 1363.463 1363.326 1363.177 1362.99 1363.068 1363.454 1363.639 1363.737 1363.854 1364.026 1364.214 1364.384 1364.506 1364.596 1364.673 1364.693 1364.703 1364.697 1364.673 1364.682 1364.726 1364.779 1364.815 1364.839 1364.852 1364.853 1364.86 1364.801 1364.669 1364.514 1364.44 1364.328 1364.195 1364.069 1363.893 1363.695 1363.535 1363.69 1363.725 1363.636 1363.503 1363.472 1363.531 1363.589 1363.48 1363.392 1363.471 1363.626 1363.765 1363.653 1363.571 1363.389 1363.225 1363.244 1363.321 1363.564 1363.934 1364.235 1364.283 1364.358 1364.38 1364.419 1364.544 1364.597 1364.633 1364.68 1364.75 1364.875 1365.027 1365.152 1365.286 1365.382 1365.491 1365.566 1365.622 1365.677 1365.755 1365.747 1365.76 1365.777 1365.788 1365.829 1365.849 1365.88 1365.861 1365.781 1365.721 1365.787 1365.949 1366.1 1366.224 1366.369 1366.485 1366.58 1366.653 1366.769 1366.892 1366.994 1367.095 1367.199 1367.26 1367.321 1367.377 1367.461 1367.563 1367.635 1367.677 1367.728 1367.783 1367.857 1367.923 1367.952 1368 1368.08 1368.119 1368.161 1368.222 1368.262 1368.317 1368.38 1368.413 1368.426 1368.431 1368.492 1368.544 1368.567 1368.604 1368.654 1368.691 1368.758 1368.827 1368.858 1368.868 1368.911 1368.986 1369.045 1369.089 1369.107 1369.153 1369.206 1369.212 1369.246 1369.309 1369.353 1369.395 1369.447 1369.48 1369.48 1369.501 1369.524 1369.579 1369.626 1369.672 1369.723 1369.753 1369.75 1369.758 1369.78 1369.842 1369.925 1369.991 1370.024 1370.024 1370.081 1370.128 1370.166 1370.215 1370.248 1370.279 1370.328 1370.337 1370.368 1370.39 1370.406 1370.411 1370.431 1370.441 1370.484 1370.504 1370.527 1370.526 1370.502 1370.436 1370.439 1370.427 1370.377 1370.354 1370.363 1370.328 1370.266 1370.245 1370.204 1370.225 1370.191 1370.226 1370.245 1370.182 1370.161 1370.183 1370.144 1370.104 1370.05 1370.002 1370.021 1370.026 1369.987 1369.974 1369.914 1369.827 1369.782 1369.719 1369.6 1369.478 1369.395 1369.382 1369.546 1369.682 1369.787 1369.951 1370.108 1370.243 1370.446 1370.636 1370.798 1370.954 1371.099 1371.21 1371.34 1371.425 1371.487 1371.548 1371.638 1371.73 1371.8 1371.828 1371.866 1371.913 1371.961 1371.994 1372.042 1372.045 1372.035 1372.023 1372.03 1372.058 1372.093 1372.147 1372.164 1372.157 1372.16 1372.194 1372.243 1372.231 1372.27 1372.259 1372.236 1372.22 1372.212 1372.198 1372.188 1372.213 1372.192 1372.166 1372.16 1372.145 1372.163 1372.132 1372.096 1372.008 1371.928 1371.879 1371.838 -9999 -9999 -9999 -9999 -9999 -9999 -9999 -9999 -9999 -9999 -9999 -9999 -9999 -9999 -9999 -9999 -9999 -9999 -9999 -9999 -9999 -9999 -9999 -9999 -9999 -9999 -9999 -9999 -9999 -9999 -9999 -9999 -9999 -9999 -9999 -9999 -9999 -9999 -9999 -9999 -9999 -9999 -9999 -9999 -9999 -9999 -9999 -9999 -9999 -9999 -9999 -9999 -9999 -9999 -9999 -9999 -9999 -9999 -9999 -9999 -9999 -9999 -9999 -9999 -9999 -9999 -9999 -9999
-9999 -9999 -9999 -9999 -9999 -9999 -9999 -9999 -9999 1363.057 1363.056 1363.011 1362.865 1362.739 1362.628 1362.615 1362.733 1362.754 1362.791 1362.901 1363.048 1363.202 1363.367 1363.548 1363.622 1363.837 1364.089 1364.243 1364.369 1364.442 1364.492 1364.474 1364.398 1364.317 1364.2 1364.064 1363.952 1363.81 1363.647 1363.528 1363.379 1363.254 1363.091 1362.917 1363.105 1363.498 1363.73 1363.804 1363.898 1364.073 1364.245 1364.441 1364.524 1364.593 1364.624 1364.628 1364.625 1364.629 1364.595 1364.612 1364.642 1364.7 1364.765 1364.763 1364.78 1364.754 1364.75 1364.723 1364.638 1364.464 1364.313 1364.256 1364.113 1363.986 1363.828 1363.571 1363.487 1363.549 1363.584 1363.495 1363.331 1363.383 1363.429 1363.431 1363.361 1363.312 1363.391 1363.491 1363.437 1363.258 1363.157 1363.195 1363.255 1363.472 1363.558 1363.763 1364.062 1364.271 1364.303 1364.323 1364.345 1364.416 1364.52 1364.585 1364.64 1364.685 1364.782 1364.918 1365.058 1365.246 1365.351 1365.42 1365.516 1365.591 1365.662 1365.731 1365.79 1365.78 1365.786 1365.815 1365.842 1365.89 1365.911 1365.953 1365.972 1365.957 1365.946 1365.977 1366.023 1366.105 1366.204 1366.36 1366.441 1366.505 1366.597 1366.693 1366.824 1366.945 1367.05 1367.158 1367.253 1367.316 1367.458 1367.557 1367.624 1367.696 1367.736 1367.783 1367.832 1367.888 1367.952 1368.019 1368.076 1368.125 1368.15 1368.173 1368.211 1368.297 1368.364 1368.406 1368.432 1368.479 1368.484 1368.554 1368.585 1368.615 1368.661 1368.665 1368.708 1368.778 1368.846 1368.883 1368.894 1368.919 1368.965 1369.014 1369.085 1369.128 1369.173 1369.206 1369.216 1369.268 1369.311 1369.359 1369.401 1369.448 1369.504 1369.5 1369.511 1369.539 1369.593 1369.652 1369.691 1369.754 1369.764 1369.756 1369.768 1369.803 1369.862 1369.921 1369.987 1370.014 1370.036 1370.084 1370.13 1370.175 1370.191 1370.211 1370.268 1370.302 1370.3 1370.341 1370.371 1370.373 1370.384 1370.395 1370.401 1370.416 1370.436 1370.433 1370.437 1370.392 1370.365 1370.385 1370.361 1370.316 1370.268 1370.271 1370.227 1370.144 1370.149 1370.087 1370.104 1370.15 1370.182 1370.164 1370.064 1370.068 1370.066 1370.026 1369.995 1369.947 1369.904 1369.939 1369.95 1369.886 1369.884 1369.801 1369.714 1369.659 1369.583 1369.467 1369.347 1369.287 1369.419 1369.604 1369.764 1369.853 1370.001 1370.139 1370.285 1370.485 1370.663 1370.828 1370.997 1371.119 1371.19 1371.297 1371.397 1371.468 1371.519 1371.614 1371.675 1371.725 1371.779 1371.826 1371.849 1371.888 1371.932 1371.953 1371.957 1371.948 1371.955 1371.975 1371.994 1372.026 1372.083 1372.084 1372.103 1372.123 1372.163 1372.172 1372.206 1372.222 1372.204 1372.177 1372.177 1372.178 1372.18 1372.17 1372.178 1372.169 1372.136 1372.105 1372.108 1372.094 1372.075 1372.039 1371.969 -9999 -9999 -9999 -9999 -9999 -9999 -9999 -9999 -9999 -9999 -9999 -9999 -9999 -9999 -9999 -9999 -9999 -9999 -9999 -9999 -9999 -9999 -9999 -9999 -9999 -9999 -9999 -9999 -9999 -9999 -9999 -9999 -9999 -9999 -9999 -9999 -9999 -9999 -9999 -9999 -9999 -9999 -9999 -9999 -9999 -9999 -9999 -9999 -9999 -9999 -9999 -9999 -9999 -9999 -9999 -9999 -9999 -9999 -9999 -9999 -9999 -9999 -9999 -9999 -9999 -9999 -9999 -9999 -9999 -9999 -9999
-9999 -9999 -9999 -9999 -9999 -9999 -9999 -9999 -9999 1363.027 1362.998 1362.97 1362.843 1362.708 1362.607 1362.489 1362.636 1362.685 1362.758 1362.854 1363.002 1363.183 1363.37 1363.547 1363.754 1363.898 1364.12 1364.269 1364.347 1364.377 1364.379 1364.357 1364.294 1364.199 1364.06 1363.976 1363.85 1363.696 1363.526 1363.437 1363.283 1363.146 1362.987 1362.873 1363.146 1363.455 1363.712 1363.817 1363.911 1364.088 1364.287 1364.452 1364.518 1364.595 1364.606 1364.544 1364.537 1364.539 1364.514 1364.525 1364.576 1364.614 1364.649 1364.675 1364.7 1364.687 1364.659 1364.616 1364.573 1364.417 1364.272 1364.215 1364.086 1363.924 1363.774 1363.553 1363.426 1363.472 1363.502 1363.409 1363.299 1363.332 1363.368 1363.368 1363.317 1363.251 1363.255 1363.344 1363.244 1363.106 1363.193 1363.432 1363.746 1363.755 1363.804 1363.917 1364.01 1364.121 1364.244 1364.327 1364.425 1364.452 1364.54 1364.604 1364.668 1364.719 1364.861 1364.983 1365.113 1365.255 1365.357 1365.43 1365.491 1365.548 1365.641 1365.713 1365.794 1365.79 1365.772 1365.827 1365.893 1365.918 1365.965 1366.021 1366.048 1366.072 1366.096 1366.13 1366.116 1366.132 1366.21 1366.313 1366.394 1366.46 1366.554 1366.611 1366.739 1366.88 1366.973 1367.091 1367.233 1367.337 1367.503 1367.579 1367.642 1367.717 1367.77 1367.822 1367.866 1367.914 1367.959 1367.989 1368.056 1368.128 1368.197 1368.209 1368.261 1368.353 1368.408 1368.444 1368.493 1368.498 1368.544 1368.615 1368.62 1368.667 1368.706 1368.719 1368.74 1368.788 1368.852 1368.876 1368.943 1368.944 1368.969 1369.029 1369.085 1369.173 1369.202 1369.206 1369.238 1369.284 1369.296 1369.4 1369.447 1369.461 1369.495 1369.496 1369.516 1369.576 1369.619 1369.69 1369.737 1369.762 1369.75 1369.758 1369.769 1369.825 1369.909 1369.929 1369.992 1370.034 1370.067 1370.097 1370.148 1370.161 1370.173 1370.206 1370.278 1370.3 1370.315 1370.325 1370.348 1370.351 1370.376 1370.392 1370.386 1370.385 1370.396 1370.405 1370.381 1370.347 1370.319 1370.295 1370.238 1370.15 1370.135 1370.108 1370.053 1370.009 1370.017 1369.992 1369.97 1370.021 1370.004 1369.949 1369.933 1369.893 1369.889 1369.907 1369.882 1369.86 1369.815 1369.823 1369.876 1369.781 1369.716 1369.644 1369.585 1369.501 1369.415 1369.324 1369.214 1369.271 1369.449 1369.638 1369.817 1369.928 1370.062 1370.211 1370.342 1370.512 1370.688 1370.854 1370.996 1371.099 1371.178 1371.27 1371.326 1371.427 1371.505 1371.589 1371.664 1371.714 1371.76 1371.798 1371.802 1371.83 1371.909 1371.902 1371.911 1371.927 1371.934 1371.947 1371.959 1371.996 1372.025 1372.046 1372.058 1372.076 1372.103 1372.077 1372.107 1372.105 1372.08 1372.095 1372.107 1372.12 1372.137 1372.138 1372.128 1372.068 1372.053 1372.051 1372.041 1372.058 1371.998 -9999 -9999 -9999 -9999 -9999 -9999 -9999 -9999 -9999 -9999 -9999 -9999 -9999 -9999 -9999 -9999 -9999 -9999 -9999 -9999 -9999 -9999 -9999 -9999 -9999 -9999 -9999 -9999 -9999 -9999 -9999 -9999 -9999 -9999 -9999 -9999 -9999 -9999 -9999 -9999 -9999 -9999 -9999 -9999 -9999 -9999 -9999 -9999 -9999 -9999 -9999 -9999 -9999 -9999 -9999 -9999 -9999 -9999 -9999 -9999 -9999 -9999 -9999 -9999 -9999 -9999 -9999 -9999 -9999 -9999 -9999 -9999 -9999
-9999 -9999 -9999 -9999 -9999 -9999 -9999 -9999 -9999 1362.99 1362.942 1362.907 1362.813 1362.671 1362.522 1362.412 1362.601 1362.65 1362.709 1362.805 1362.958 1363.162 1363.375 1363.545 1363.739 1363.868 1364.105 1364.244 1364.315 1364.325 1364.332 1364.312 1364.239 1364.127 1363.991 1363.898 1363.79 1363.635 1363.487 1363.373 1363.22 1363.052 1362.844 1362.888 1363.179 1363.469 1363.71 1363.921 1364.015 1364.181 1364.323 1364.398 1364.458 1364.498 1364.475 1364.453 1364.445 1364.423 1364.441 1364.433 1364.477 1364.531 1364.54 1364.573 1364.594 1364.595 1364.541 1364.515 1364.452 1364.382 1364.246 1364.144 1364.041 1363.931 1363.791 1363.573 1363.397 1363.416 1363.429 1363.286 1363.292 1363.307 1363.309 1363.307 1363.275 1363.211 1363.164 1363.18 1363.142 1363.177 1363.457 1363.781 1363.844 1363.782 1363.834 1363.886 1363.979 1364.027 1364.169 1364.304 1364.412 1364.465 1364.553 1364.617 1364.673 1364.752 1364.839 1364.973 1365.142 1365.243 1365.316 1365.385 1365.446 1365.51 1365.62 1365.645 1365.688 1365.797 1365.863 1365.905 1365.93 1366 1366.043 1366.116 1366.123 1366.145 1366.205 1366.218 1366.23 1366.212 1366.286 1366.355 1366.422 1366.482 1366.556 1366.643 1366.726 1366.857 1366.974 1367.085 1367.213 1367.336 1367.454 1367.565 1367.656 1367.734 1367.814 1367.841 1367.9 1367.937 1367.965 1368.009 1368.066 1368.151 1368.22 1368.267 1368.311 1368.366 1368.42 1368.461 1368.494 1368.525 1368.613 1368.646 1368.65 1368.694 1368.736 1368.749 1368.782 1368.796 1368.847 1368.9 1368.978 1368.994 1369.025 1369.056 1369.072 1369.161 1369.222 1369.239 1369.247 1369.29 1369.356 1369.428 1369.425 1369.448 1369.47 1369.499 1369.53 1369.573 1369.618 1369.713 1369.729 1369.741 1369.743 1369.757 1369.786 1369.853 1369.92 1369.969 1370.044 1370.083 1370.078 1370.105 1370.155 1370.17 1370.18 1370.227 1370.275 1370.303 1370.319 1370.323 1370.327 1370.338 1370.362 1370.394 1370.367 1370.34 1370.366 1370.359 1370.322 1370.291 1370.271 1370.204 1370.145 1370.101 1370.044 1370.006 1369.963 1369.907 1369.895 1369.894 1369.853 1369.854 1369.839 1369.848 1369.834 1369.829 1369.803 1369.744 1369.707 1369.69 1369.688 1369.623 1369.61 1369.614 1369.51 1369.444 1369.368 1369.281 1369.225 1369.149 1369.089 1369.246 1369.436 1369.678 1369.845 1370.04 1370.144 1370.276 1370.391 1370.556 1370.729 1370.882 1370.998 1371.054 1371.182 1371.254 1371.277 1371.381 1371.471 1371.53 1371.599 1371.657 1371.69 1371.741 1371.752 1371.76 1371.832 1371.839 1371.859 1371.869 1371.903 1371.914 1371.952 1371.982 1372.004 1372.018 1372.033 1372.059 1372.097 1372.074 1372.041 1372.026 1372.032 1372.038 1372.039 1372.063 1372.073 1372.063 1372.045 1371.985 1371.982 1371.992 1371.98 -9999 -9999 -9999 -9999 -9999 -9999 -9999 -9999 -9999 -9999 -9999 -9999 -9999 -9999 -9999 -9999 -9999 -9999 -9999 -9999 -9999 -9999 -9999 -9999 -9999 -9999 -9999 -9999 -9999 -9999 -9999 -9999 -9999 -9999 -9999 -9999 -9999 -9999 -9999 -9999 -9999 -9999 -9999 -9999 -9999 -9999 -9999 -9999 -9999 -9999 -9999 -9999 -9999 -9999 -9999 -9999 -9999 -9999 -9999 -9999 -9999 -9999 -9999 -9999 -9999 -9999 -9999 -9999 -9999 -9999 -9999 -9999 -9999 -9999 -9999
-9999 -9999 -9999 -9999 -9999 -9999 -9999 -9999 -9999 -9999 1362.886 1362.856 1362.775 1362.657 1362.504 1362.428 1362.549 1362.626 1362.708 1362.795 1362.919 1363.11 1363.325 1363.539 1363.717 1363.878 1364.083 1364.198 1364.258 1364.252 1364.254 1364.232 1364.165 1364.105 1363.967 1363.809 1363.693 1363.574 1363.445 1363.286 1363.115 1362.953 1362.789 1362.994 1363.266 1363.532 1363.774 1363.941 1364.09 1364.186 1364.294 1364.371 1364.391 1364.382 1364.371 1364.348 1364.336 1364.331 1364.33 1364.323 1364.363 1364.383 1364.41 1364.417 1364.42 1364.43 1364.39 1364.347 1364.31 1364.264 1364.14 1363.996 1363.961 1363.877 1363.737 1363.558 1363.356 1363.349 1363.329 1363.214 1363.238 1363.27 1363.277 1363.237 1363.23 1363.173 1363.1 1363.111 1363.449 1363.585 1363.706 1363.892 1363.857 1363.814 1363.804 1363.864 1363.922 1364.006 1364.121 1364.248 1364.361 1364.451 1364.528 1364.588 1364.653 1364.749 1364.795 1364.935 1365.063 1365.164 1365.251 1365.33 1365.385 1365.466 1365.589 1365.641 1365.688 1365.806 1365.946 1365.953 1365.949 1366.022 1366.086 1366.148 1366.223 1366.259 1366.282 1366.312 1366.333 1366.332 1366.339 1366.413 1366.503 1366.58 1366.697 1366.759 1366.842 1366.959 1367.051 1367.144 1367.246 1367.379 1367.423 1367.555 1367.675 1367.746 1367.806 1367.857 1367.908 1367.94 1367.98 1368.029 1368.091 1368.156 1368.249 1368.284 1368.351 1368.377 1368.437 1368.47 1368.482 1368.582 1368.65 1368.647 1368.69 1368.724 1368.738 1368.761 1368.817 1368.838 1368.859 1368.924 1369 1369.032 1369.049 1369.084 1369.118 1369.195 1369.23 1369.252 1369.251 1369.302 1369.368 1369.417 1369.397 1369.46 1369.489 1369.543 1369.562 1369.579 1369.655 1369.722 1369.71 1369.714 1369.734 1369.752 1369.809 1369.88 1369.937 1369.983 1370.002 1370.035 1370.061 1370.119 1370.154 1370.18 1370.198 1370.216 1370.257 1370.316 1370.319 1370.318 1370.309 1370.321 1370.341 1370.364 1370.337 1370.335 1370.322 1370.3 1370.261 1370.229 1370.202 1370.132 1370.077 1370.015 1369.948 1369.922 1369.891 1369.833 1369.771 1369.764 1369.761 1369.776 1369.756 1369.761 1369.735 1369.721 1369.735 1369.673 1369.65 1369.598 1369.558 1369.544 1369.522 1369.479 1369.369 1369.289 1369.173 1369.087 1369.025 1368.997 1369.111 1369.297 1369.489 1369.746 1369.945 1370.1 1370.181 1370.311 1370.429 1370.572 1370.717 1370.813 1370.908 1370.969 1371.046 1371.141 1371.192 1371.312 1371.393 1371.442 1371.529 1371.572 1371.612 1371.669 1371.697 1371.714 1371.759 1371.783 1371.784 1371.839 1371.869 1371.9 1371.939 1371.922 1371.964 1372.005 1372.01 1372.014 1372.05 1372.059 1372.014 1371.987 1372 1371.998 1371.989 1371.992 1371.99 1371.976 1371.953 1371.943 1371.937 -9999 -9999 -9999 -9999 -9999 -9999 -9999 -9999 -9999 -9999 -9999 -9999 -9999 -9999 -9999 -9999 -9999 -9999 -9999 -9999 -9999 -9999 -9999 -9999 -9999 -9999 -9999 -9999 -9999 -9999 -9999 -9999 -9999 -9999 -9999 -9999 -9999 -9999 -9999 -9999 -9999 -9999 -9999 -9999 -9999 -9999 -9999 -9999 -9999 -9999 -9999 -9999 -9999 -9999 -9999 -9999 -9999 -9999 -9999 -9999 -9999 -9999 -9999 -9999 -9999 -9999 -9999 -9999 -9999 -9999 -9999 -9999 -9999 -9999 -9999 -9999 -9999
-9999 -9999 -9999 -9999 -9999 -9999 -9999 -9999 -9999 -9999 1362.844 1362.805 1362.734 1362.639 1362.448 1362.388 1362.473 1362.553 1362.644 1362.764 1362.895 1363.042 1363.285 1363.51 1363.715 1363.889 1364.002 1364.151 1364.179 1364.181 1364.194 1364.139 1364.09 1364.037 1363.938 1363.768 1363.623 1363.503 1363.358 1363.226 1362.992 1362.822 1362.828 1363.081 1363.347 1363.604 1363.778 1363.954 1364.105 1364.164 1364.266 1364.351 1364.331 1364.307 1364.285 1364.247 1364.258 1364.255 1364.245 1364.239 1364.276 1364.288 1364.322 1364.325 1364.314 1364.298 1364.277 1364.254 1364.242 1364.165 1364.041 1363.904 1363.867 1363.774 1363.665 1363.517 1363.281 1363.219 1363.172 1363.144 1363.181 1363.208 1363.244 1363.216 1363.15 1363.075 1363.033 1363.292 1363.652 1363.801 1363.787 1363.823 1363.86 1363.823 1363.845 1364.002 1364.033 1364.126 1364.232 1364.247 1364.275 1364.38 1364.446 1364.541 1364.621 1364.687 1364.77 1364.86 1364.929 1365.027 1365.158 1365.278 1365.345 1365.435 1365.55 1365.647 1365.694 1365.802 1365.895 1365.942 1365.966 1366.035 1366.131 1366.212 1366.281 1366.338 1366.365 1366.394 1366.398 1366.383 1366.365 1366.431 1366.555 1366.653 1366.8 1366.865 1366.929 1367.025 1367.132 1367.207 1367.32 1367.446 1367.499 1367.613 1367.707 1367.772 1367.848 1367.888 1367.936 1367.993 1368.015 1368.082 1368.177 1368.225 1368.26 1368.353 1368.456 1368.453 1368.454 1368.473 1368.502 1368.587 1368.65 1368.682 1368.721 1368.736 1368.762 1368.785 1368.834 1368.84 1368.896 1368.939 1368.991 1369.034 1369.067 1369.098 1369.119 1369.195 1369.219 1369.263 1369.291 1369.343 1369.398 1369.397 1369.42 1369.496 1369.518 1369.554 1369.63 1369.625 1369.677 1369.721 1369.713 1369.704 1369.739 1369.792 1369.861 1369.89 1369.939 1369.995 1370.011 1370.031 1370.075 1370.113 1370.161 1370.194 1370.218 1370.227 1370.263 1370.292 1370.294 1370.29 1370.29 1370.296 1370.33 1370.303 1370.284 1370.273 1370.259 1370.261 1370.188 1370.15 1370.088 1370.04 1370.007 1369.918 1369.851 1369.819 1369.79 1369.742 1369.687 1369.667 1369.661 1369.708 1369.735 1369.729 1369.698 1369.614 1369.631 1369.589 1369.578 1369.517 1369.465 1369.443 1369.38 1369.312 1369.226 1369.157 1368.99 1368.869 1368.873 1369.002 1369.192 1369.35 1369.526 1369.811 1369.994 1370.093 1370.255 1370.291 1370.409 1370.528 1370.622 1370.718 1370.862 1370.932 1370.983 1371.056 1371.119 1371.232 1371.303 1371.369 1371.427 1371.474 1371.532 1371.599 1371.643 1371.66 1371.65 1371.694 1371.697 1371.717 1371.763 1371.855 1371.894 1371.891 1371.904 1371.941 1371.948 1371.953 1372.006 1372.027 1371.997 1371.943 1371.951 1371.93 1371.923 1371.928 1371.928 1371.897 1371.891 -9999 -9999 -9999 -9999 -9999 -9999 -9999 -9999 -9999 -9999 -9999 -9999 -9999 -9999 -9999 -9999 -9999 -9999 -9999 -9999 -9999 -9999 -9999 -9999 -9999 -9999 -9999 -9999 -9999 -9999 -9999 -9999 -9999 -9999 -9999 -9999 -9999 -9999 -9999 -9999 -9999 -9999 -9999 -9999 -9999 -9999 -9999 -9999 -9999 -9999 -9999 -9999 -9999 -9999 -9999 -9999 -9999 -9999 -9999 -9999 -9999 -9999 -9999 -9999 -9999 -9999 -9999 -9999 -9999 -9999 -9999 -9999 -9999 -9999 -9999 -9999 -9999 -9999 -9999
-9999 -9999 -9999 -9999 -9999 -9999 -9999 -9999 -9999 -9999 1362.788 1362.772 1362.724 1362.646 1362.425 1362.322 1362.425 1362.49 1362.539 1362.685 1362.858 1363.022 1363.231 1363.486 1363.677 1363.833 1363.954 1364.096 1364.143 1364.14 1364.132 1364.082 1364.008 1363.962 1363.852 1363.697 1363.567 1363.43 1363.28 1363.077 1362.876 1362.699 1362.886 1363.163 1363.398 1363.575 1363.746 1363.949 1364.073 1364.134 1364.227 1364.318 1364.24 1364.217 1364.183 1364.169 1364.18 1364.143 1364.153 1364.161 1364.17 1364.202 1364.242 1364.253 1364.248 1364.211 1364.188 1364.186 1364.158 1364.086 1363.942 1363.757 1363.544 1363.553 1363.352 1363.243 1363.154 1363.186 1363.186 1363.111 1363.107 1363.148 1363.182 1363.156 1363.053 1363.002 1363.147 1363.446 1363.63 1363.714 1363.704 1363.716 1363.8 1363.924 1364.084 1364.266 1364.247 1364.294 1364.381 1364.433 1364.387 1364.458 1364.497 1364.573 1364.61 1364.647 1364.724 1364.83 1364.921 1365.014 1365.135 1365.236 1365.311 1365.393 1365.493 1365.6 1365.676 1365.786 1365.879 1365.917 1365.976 1366.055 1366.135 1366.223 1366.299 1366.381 1366.443 1366.483 1366.484 1366.469 1366.464 1366.498 1366.608 1366.735 1366.889 1366.959 1367.026 1367.113 1367.254 1367.291 1367.369 1367.473 1367.61 1367.667 1367.755 1367.831 1367.885 1367.93 1367.965 1367.999 1368.04 1368.133 1368.221 1368.251 1368.29 1368.352 1368.458 1368.488 1368.504 1368.529 1368.555 1368.637 1368.692 1368.735 1368.764 1368.797 1368.806 1368.828 1368.859 1368.892 1368.943 1368.969 1369.003 1369.027 1369.075 1369.14 1369.142 1369.162 1369.213 1369.256 1369.318 1369.381 1369.419 1369.406 1369.447 1369.514 1369.541 1369.591 1369.659 1369.68 1369.681 1369.72 1369.713 1369.726 1369.758 1369.846 1369.901 1369.907 1369.948 1370.004 1370.02 1370.039 1370.087 1370.119 1370.153 1370.187 1370.215 1370.252 1370.271 1370.291 1370.281 1370.3 1370.296 1370.286 1370.306 1370.272 1370.249 1370.245 1370.207 1370.203 1370.187 1370.098 1370.001 1369.941 1369.867 1369.765 1369.757 1369.727 1369.692 1369.633 1369.553 1369.536 1369.521 1369.526 1369.506 1369.495 1369.462 1369.474 1369.461 1369.42 1369.458 1369.436 1369.388 1369.329 1369.229 1369.145 1369.054 1368.944 1368.813 1368.793 1368.872 1369.037 1369.244 1369.395 1369.559 1369.779 1370.006 1370.136 1370.246 1370.281 1370.371 1370.476 1370.564 1370.697 1370.809 1370.88 1370.911 1370.997 1371.089 1371.161 1371.209 1371.293 1371.365 1371.41 1371.448 1371.554 1371.606 1371.605 1371.588 1371.609 1371.625 1371.692 1371.734 1371.807 1371.825 1371.858 1371.868 1371.89 1371.909 1371.912 1371.9 1371.882 1371.902 1371.901 1371.883 1371.859 1371.83 1371.812 1371.82 -9999 -9999 -9999 -9999 -9999 -9999 -9999 -9999 -9999 -9999 -9999 -9999 -9999 -9999 -9999 -9999 -9999 -9999 -9999 -9999 -9999 -9999 -9999 -9999 -9999 -9999 -9999 -9999 -9999 -9999 -9999 -9999 -9999 -9999 -9999 -9999 -9999 -9999 -9999 -9999 -9999 -9999 -9999 -9999 -9999 -9999 -9999 -9999 -9999 -9999 -9999 -9999 -9999 -9999 -9999 -9999 -9999 -9999 -9999 -9999 -9999 -9999 -9999 -9999 -9999 -9999 -9999 -9999 -9999 -9999 -9999 -9999 -9999 -9999 -9999 -9999 -9999 -9999 -9999 -9999 -9999
-9999 -9999 -9999 -9999 -9999 -9999 -9999 -9999 -9999 -9999 -9999 1362.727 1362.675 1362.525 1362.356 1362.253 1362.376 1362.434 1362.545 1362.666 1362.842 1363.003 1363.193 1363.458 1363.631 1363.815 1363.975 1364.056 1364.119 1364.098 1364.077 1364.047 1363.972 1363.926 1363.787 1363.648 1363.523 1363.395 1363.247 1363.051 1362.717 1362.491 1362.837 1363.1 1363.343 1363.528 1363.702 1363.863 1363.993 1364.062 1364.076 1364.128 1364.107 1364.064 1364.039 1364.029 1363.999 1363.996 1363.999 1364.074 1364.093 1364.119 1364.157 1364.177 1364.156 1364.106 1364.107 1364.093 1364.006 1363.927 1363.847 1363.559 1363.28 1363.17 1363.039 1363.012 1363.118 1363.216 1363.202 1363.112 1363.071 1363.068 1363.074 1363.026 1362.983 1363.051 1363.296 1363.493 1363.561 1363.568 1363.582 1363.691 1363.902 1364.088 1364.217 1364.359 1364.375 1364.412 1364.478 1364.533 1364.54 1364.552 1364.573 1364.614 1364.686 1364.765 1364.838 1364.914 1365.016 1365.107 1365.163 1365.273 1365.33 1365.429 1365.486 1365.56 1365.688 1365.787 1365.887 1365.959 1365.992 1366.092 1366.181 1366.234 1366.332 1366.41 1366.5 1366.558 1366.54 1366.549 1366.546 1366.529 1366.62 1366.8 1366.955 1367.027 1367.117 1367.196 1367.391 1367.403 1367.439 1367.552 1367.652 1367.679 1367.773 1367.859 1367.91 1367.955 1367.991 1368.054 1368.109 1368.176 1368.206 1368.256 1368.331 1368.374 1368.432 1368.475 1368.518 1368.547 1368.571 1368.613 1368.674 1368.758 1368.785 1368.816 1368.836 1368.857 1368.894 1368.909 1368.932 1368.981 1369.012 1369.049 1369.06 1369.145 1369.197 1369.229 1369.252 1369.307 1369.352 1369.387 1369.414 1369.46 1369.516 1369.556 1369.586 1369.609 1369.667 1369.69 1369.7 1369.711 1369.713 1369.753 1369.771 1369.878 1369.911 1369.925 1369.979 1369.989 1370.021 1370.063 1370.109 1370.139 1370.168 1370.187 1370.247 1370.26 1370.26 1370.285 1370.299 1370.31 1370.3 1370.3 1370.282 1370.249 1370.232 1370.213 1370.144 1370.103 1370.089 1369.995 1369.883 1369.829 1369.75 1369.694 1369.701 1369.673 1369.612 1369.55 1369.483 1369.417 1369.422 1369.397 1369.39 1369.38 1369.355 1369.367 1369.36 1369.332 1369.301 1369.302 1369.239 1369.127 1368.978 1368.834 1368.74 1368.651 1368.611 1368.75 1368.94 1369.141 1369.308 1369.459 1369.646 1369.804 1369.997 1370.126 1370.216 1370.259 1370.339 1370.439 1370.517 1370.596 1370.67 1370.763 1370.86 1370.953 1371.03 1371.103 1371.147 1371.227 1371.322 1371.377 1371.42 1371.481 1371.516 1371.538 1371.565 1371.557 1371.591 1371.651 1371.748 1371.762 1371.774 1371.824 1371.857 1371.864 1371.869 1371.873 1371.863 1371.838 1371.855 1371.876 1371.841 1371.792 1371.763 -9999 -9999 -9999 -9999 -9999 -9999 -9999 -9999 -9999 -9999 -9999 -9999 -9999 -9999 -9999 -9999 -9999 -9999 -9999 -9999 -9999 -9999 -9999 -9999 -9999 -9999 -9999 -9999 -9999 -9999 -9999 -9999 -9999 -9999 -9999 -9999 -9999 -9999 -9999 -9999 -9999 -9999 -9999 -9999 -9999 -9999 -9999 -9999 -9999 -9999 -9999 -9999 -9999 -9999 -9999 -9999 -9999 -9999 -9999 -9999 -9999 -9999 -9999 -9999 -9999 -9999 -9999 -9999 -9999 -9999 -9999 -9999 -9999 -9999 -9999 -9999 -9999 -9999 -9999 -9999 -9999 -9999 -9999
-9999 -9999 -9999 -9999 -9999 -9999 -9999 -9999 -9999 -9999 -9999 1362.689 1362.623 1362.495 1362.346 1362.201 1362.273 1362.415 1362.558 1362.678 1362.83 1362.991 1363.209 1363.411 1363.615 1363.835 1363.991 1364.023 1364.074 1364.063 1364.044 1363.983 1363.912 1363.877 1363.769 1363.594 1363.453 1363.343 1363.196 1362.928 1362.437 1362.098 1362.565 1363.228 1363.342 1363.492 1363.649 1363.784 1363.892 1363.951 1363.947 1363.99 1363.99 1363.967 1363.962 1363.944 1363.906 1363.918 1363.912 1363.963 1363.981 1364.047 1364.058 1364.064 1364.033 1363.961 1363.92 1363.836 1363.726 1363.633 1363.491 1363.237 1363.01 1363.047 1363.182 1363.424 1363.418 1363.319 1363.209 1363.136 1363.042 1363.005 1362.951 1362.965 1363.105 1363.26 1363.441 1363.498 1363.478 1363.56 1363.682 1363.837 1364.004 1364.209 1364.309 1364.393 1364.469 1364.504 1364.574 1364.652 1364.681 1364.691 1364.698 1364.718 1364.804 1364.873 1364.93 1364.977 1365.077 1365.18 1365.268 1365.362 1365.408 1365.454 1365.539 1365.619 1365.716 1365.826 1365.978 1365.993 1366.028 1366.119 1366.229 1366.292 1366.365 1366.486 1366.563 1366.616 1366.635 1366.661 1366.663 1366.677 1366.723 1366.88 1367.019 1367.12 1367.202 1367.316 1367.462 1367.506 1367.552 1367.694 1367.719 1367.751 1367.803 1367.874 1367.932 1367.966 1368.009 1368.092 1368.13 1368.183 1368.225 1368.285 1368.35 1368.422 1368.476 1368.503 1368.531 1368.552 1368.567 1368.619 1368.676 1368.781 1368.815 1368.814 1368.84 1368.865 1368.919 1368.924 1368.95 1369.003 1369.043 1369.085 1369.128 1369.184 1369.222 1369.268 1369.301 1369.327 1369.368 1369.406 1369.44 1369.494 1369.541 1369.592 1369.605 1369.664 1369.719 1369.737 1369.752 1369.749 1369.775 1369.798 1369.848 1369.901 1369.939 1369.954 1369.994 1370.001 1370.046 1370.084 1370.121 1370.147 1370.192 1370.232 1370.257 1370.28 1370.268 1370.288 1370.308 1370.309 1370.289 1370.285 1370.255 1370.223 1370.206 1370.164 1370.123 1370.077 1370.001 1369.902 1369.78 1369.732 1369.691 1369.651 1369.599 1369.553 1369.513 1369.454 1369.392 1369.329 1369.307 1369.306 1369.276 1369.295 1369.278 1369.294 1369.285 1369.248 1369.205 1369.192 1369.123 1369.016 1368.895 1368.771 1368.628 1368.516 1368.616 1368.757 1368.953 1369.165 1369.32 1369.489 1369.674 1369.843 1369.981 1370.04 1370.124 1370.215 1370.267 1370.369 1370.442 1370.5 1370.57 1370.649 1370.743 1370.835 1370.934 1371.024 1371.087 1371.113 1371.192 1371.289 1371.385 1371.412 1371.451 1371.465 1371.493 1371.531 1371.601 1371.623 1371.685 1371.714 1371.746 1371.786 1371.843 1371.824 1371.821 1371.813 1371.814 1371.798 1371.799 1371.814 1371.781 -9999 -9999 -9999 -9999 -9999 -9999 -9999 -9999 -9999 -9999 -9999 -9999 -9999 -9999 -9999 -9999 -9999 -9999 -9999 -9999 -9999 -9999 -9999 -9999 -9999 -9999 -9999 -9999 -9999 -9999 -9999 -9999 -9999 -9999 -9999 -9999 -9999 -9999 -9999 -9999 -9999 -9999 -9999 -9999 -9999 -9999 -9999 -9999 -9999 -9999 -9999 -9999 -9999 -9999 -9999 -9999 -9999 -9999 -9999 -9999 -9999 -9999 -9999 -9999 -9999 -9999 -9999 -9999 -9999 -9999 -9999 -9999 -9999 -9999 -9999 -9999 -9999 -9999 -9999 -9999 -9999 -9999 -9999 -9999 -9999
