ncols         335
nrows         32
xllcorner     468196.240419
yllcorner     4337398.45502
cellsize      30
NODATA_value  -9999
2560.282 2554.856 2552.4 2548.849 2543.251 2537.929 2527.963 2518.672 2509.827 2506.165 2507.585 2509.893 2510.246 2506.74 2504.441 2500.341 2493.552 2485.715 2477.592 2470.818 2465.454 2465.857 2471.428 2473.919 2473.512 2471.37 2468.469 2465.147 2460.521 2453.45 2443.495 2439.465 2444.64 2446.481 2452.858 2458.508 2461.536 2460.315 2456.426 2449.099 2438.851 2430.128 2422.444 2413.732 2404.024 2396.671 2389.136 2382.198 2377.23 2374.844 2371.314 2367.026 2362.184 2355.455 2350.286 2344.921 2338.786 2331.634 2327.802 2323.409 2319.137 2315.558 2310.652 2304.823 2297.698 2292.977 2291.064 2289.462 2285.87 2281.3 2279.231 2279.603 2285.612 2290.93 2292.892 2293.942 2294.704 2294.793 2296.311 2297.652 2298.886 2299.195 2298.472 2295.398 2291.016 2285.081 2280.382 2277.361 2275.524 2273.859 2272.76 2272.471 2274.082 2278.81 2286.755 2294.597 2302.093 2311.967 2321.719 2334.217 2349.782 2360.534 2371.116 2378.941 2383.086 2386.667 2388.167 2386.174 2384.443 2388.306 2395.677 2403.694 2409.649 2412.018 2408.751 2402.653 2394.018 2384.811 2380.509 2387.662 2398.888 2409.868 2421.806 2432.44 2436.728 2437.016 2442.896 2453.482 2462.944 2470.405 2478.054 2487.552 2498.081 2500.757 2483.035 2462.383 2446.923 2433.082 2423.341 2416.711 2409.721 2402.344 2395.658 2390.654 2388.265 2387.699 2385.629 2383.177 2381.021 2378.153 2375.693 2373.232 2371.398 2370.976 2371.099 2374.128 2378.682 2382.998 2386.036 2387.245 2390.001 2393.093 2394.646 2391.993 2385.445 2381.275 2378.752 2375.626 2372.961 2368.8 2365.489 2361.803 2357.73 2353.952 2351.148 2348.56 2344.487 2340.66 2336.813 2332.615 2329.9 2326.85 2320.749 2315.782 2314.233 2313.701 2311.589 2309.587 2305.46 2301.698 2294.896 2284.101 2272.326 2264.288 2254.827 2244.315 2237.858 2233.99 2234.303 2238.644 2245.372 2244.696 2246.607 2246.205 2242.639 2240.322 2238.832 2233.753 2226.775 2217.498 2207.365 2200.433 2196.744 2191.437 2186.66 2182.916 2178.482 2176.172 2173.901 2168.442 2159.043 2151.532 2146.127 2141.5 2131.666 2120.619 2111.683 2101.829 2094.792 2092.194 2092.194 2092.194 2092.194 2092.194 2092.194 2092.194 2092.194 2092.194 2092.194 2092.194 2092.194 2092.194 2092.194 2092.194 2092.194 2092.194 2092.194 2092.874 2095.987 2096.945 2099.108 2105.755 2113.988 2121.768 2129.053 2137.444 2144.661 2150.209 2156.423 2160.893 2162.868 2160.045 2158.932 2159.843 2159.961 2153.776 2146.107 2137.385 2132.786 2140.699 2151.576 2160.452 2161.382 2154.099 2146.057 2139.493 2136.364 2139.287 2144.228 2150.31 2157.471 2163.944 2170.702 2175.831 2180.706 2182.981 2190.514 2197.237 2203.107 2207.773 2209.596 2210.228 2213.951 2216.548 2220.906 2228.958 2234.881 2236.506 2235.087 2231.472 2232.045 2236.126 2237.322 2238.302 2241.44 2236.684 2227.866 2223.379 2220.144 2224.597 2241.451 2256.164 2270.813 2282.96 2291.327 2298.474 2304.089 2313.183 2323.786 2335.06 2342.798 2350.331 2351.31 2345.02 2336.564 2331.961 2327.139 2324.06 2325.593 2326.874 2321.009 2313.734 2316.767 2314.512 2303.477
2553.094 2548.826 2547.1 2544.424 2540.782 2537.21 2530.31 2522.026 2510.722 2501.745 2499.125 2499.662 2501.033 2500.615 2500.085 2497.075 2491.793 2485.937 2478.239 2470.697 2464.328 2462.295 2466.601 2469.32 2469.458 2469.323 2466.823 2463.571 2459.497 2454.345 2445.831 2438.071 2436.528 2440.106 2448.193 2454.322 2458.674 2458.438 2456.894 2450.104 2439.464 2430.205 2422.506 2413.758 2403.865 2395.562 2386.759 2378.349 2372.317 2367.861 2365.889 2362.749 2356.2 2352.797 2347.106 2341.434 2337.694 2332.7 2330.89 2328.789 2324.939 2320.383 2314.801 2306.602 2300.063 2295.814 2294.598 2293.673 2290.613 2283.938 2279.667 2283.145 2293.089 2297.692 2300.658 2302.792 2304.373 2305.111 2303.538 2302.928 2304.338 2304.283 2302.544 2297.741 2292.201 2286.79 2282.603 2279.754 2278.721 2278.95 2278.441 2278.001 2279.488 2284.919 2291.714 2299.134 2307.685 2318.579 2327.287 2340.039 2355.028 2366.072 2376.781 2385.542 2391.572 2397.239 2399.619 2399.804 2400.672 2404.097 2407.196 2413.818 2422.602 2425.708 2421.708 2413.571 2404.233 2393.2 2384.767 2388.464 2399.138 2410.342 2423.605 2435.796 2442.306 2444.244 2446.001 2450.832 2458.033 2465.575 2474.413 2483.664 2493.707 2499.049 2486.783 2472.355 2459.318 2445.369 2433.739 2423.716 2415.863 2407.313 2400.081 2394.529 2391.291 2390.691 2388.53 2385.614 2383.073 2380.729 2378.745 2376.794 2375.406 2374.806 2374.351 2376.427 2380.665 2386.605 2391.333 2391.81 2392.295 2391.398 2389.902 2388.596 2386.172 2382.57 2379.918 2377.88 2377.194 2372.906 2367.934 2363.648 2359.245 2355.51 2352.708 2349.71 2345.071 2340.845 2335.374 2329.641 2325.823 2320.465 2313.284 2308.51 2306.783 2305.659 2302.498 2300.687 2298.403 2293.148 2288.574 2282.68 2274.253 2266.939 2257.694 2246.911 2239.034 2231.362 2227.212 2227.583 2233.753 2236.579 2238.537 2239.436 2238.615 2241.956 2244.604 2243.199 2237.057 2225.774 2214.328 2206.348 2200.868 2193.702 2185.411 2180.674 2174.648 2171.778 2168.437 2163.918 2155.383 2147.706 2143.702 2141.13 2131.528 2120.342 2110.872 2100.06 2092.194 2092.194 2092.194 2092.194 2092.194 2092.194 2092.194 2092.194 2092.194 2092.194 2092.194 2092.194 2092.194 2092.194 2092.194 2092.194 2092.194 2092.194 2092.194 2093.033 2095.88 2095.728 2095.58 2102.334 2114.348 2124.11 2132.217 2141.598 2147.804 2152.742 2157.138 2161.588 2165.587 2164.433 2163.391 2162.19 2160.196 2155.055 2148.344 2140.704 2135.18 2141.676 2150.47 2159.232 2162.083 2157.728 2150.968 2144.98 2141.27 2142.344 2145.931 2151.375 2158.281 2165.803 2173.705 2180.414 2183.984 2184.701 2192.518 2198.144 2202.807 2207.128 2210.715 2215.467 2219.386 2224.66 2228.638 2233.444 2237.645 2240.598 2238.305 2233.492 2233.673 2239.403 2242.073 2244.719 2247.132 2241.777 2236.558 2232.725 2226.51 2224.979 2237.457 2251.61 2265.298 2279.647 2293.327 2304.362 2310.554 2318.405 2325.809 2334.543 2342.169 2349.594 2348.962 2342.755 2339.736 2334.449 2332.215 2333.207 2336.275 2337.003 2332.585 2326.838 2327.409 2321.894 2310.289
2550.694 2545.652 2540.878 2538.07 2534.629 2530.842 2526.456 2520.583 2513.658 2503.523 2494.854 2490.764 2490.315 2491.129 2490.577 2490.361 2488.732 2483.99 2478.099 2471.779 2465.448 2461.666 2462.388 2464.198 2465.392 2466.037 2464.836 2461.659 2457.569 2452.744 2445.911 2436.424 2429.497 2433.314 2441.84 2449.452 2456.626 2462.259 2458.781 2450.73 2439.795 2429.506 2422.02 2413.847 2403.786 2394.54 2385.472 2377.635 2373.664 2369.183 2366.16 2363.052 2358.248 2355.002 2350.815 2345.599 2342.123 2339.494 2336.468 2333.21 2328.249 2321.51 2313.608 2305.051 2302.645 2301.876 2300.92 2299.12 2295.503 2288.988 2280.331 2284.234 2294.867 2300.42 2305.246 2309.518 2313.253 2314.974 2313.735 2312.624 2313.619 2312.365 2306.463 2298.659 2291.768 2289.362 2285.635 2283.445 2283.013 2283.327 2283.142 2283.13 2285.307 2291.275 2297.898 2305.168 2313.891 2323.74 2332.445 2345.208 2359.449 2371.181 2382.435 2392.394 2401.112 2408.595 2412.403 2413.427 2414.334 2417.979 2419.931 2423.642 2432.317 2437.479 2433.732 2423.459 2412.39 2400.642 2390.27 2389.285 2397.42 2408.076 2421.039 2434.253 2442.869 2449.869 2452.938 2454.546 2458.883 2466.073 2474.939 2482.919 2490.478 2494.292 2487.413 2477.077 2467.465 2456.903 2443.563 2429.627 2420.262 2412.014 2403.759 2398.431 2395.11 2393.183 2390.969 2388.086 2385.665 2383.741 2381.749 2379.912 2378.776 2377.361 2376.503 2377.355 2381.101 2387.408 2392.209 2393.621 2392.539 2390.913 2389.017 2387.435 2385.716 2382.938 2381.556 2382.554 2380.692 2376.472 2369.834 2364.726 2360.645 2356.724 2354.149 2351.127 2346.706 2342.752 2337.024 2330.464 2324.805 2317.688 2309.909 2303.421 2299.014 2296.712 2291.626 2287.561 2285.585 2282.069 2278.316 2275.814 2271.992 2266.889 2260.675 2252.189 2242.977 2234.545 2226.184 2220.055 2221.031 2225.621 2227.341 2228.978 2230.599 2239.034 2244.285 2244.907 2239.78 2230.384 2222.181 2214.198 2205.102 2196.067 2186.975 2180.838 2172.812 2165.198 2157.876 2152.479 2147.278 2140.335 2136.215 2133.234 2127.776 2118.012 2109.631 2100.021 2092.194 2092.194 2092.194 2092.194 2092.194 2092.194 2092.194 2092.194 2092.194 2092.194 2092.194 2092.194 2092.194 2092.194 2092.194 2092.194 2092.194 2092.194 2092.481 2094.988 2097.533 2098.018 2100.518 2108.105 2119.792 2128.991 2137.877 2146.36 2152.616 2158.059 2160.436 2164.178 2168.789 2169.724 2167.918 2165.512 2162.355 2158.617 2152.031 2144.342 2138.731 2144.567 2151.253 2158.187 2161.624 2159.137 2154.447 2149.9 2144.538 2144.729 2147.487 2152.105 2157.53 2164.446 2173.069 2182.141 2186.187 2188.71 2193.626 2198.577 2203.227 2206.732 2212.888 2219.661 2223.939 2230.691 2237.792 2242.326 2245.748 2246.068 2243.223 2239.648 2239.307 2244.514 2248.595 2251.936 2252.308 2243.814 2243.49 2241.475 2229.987 2226.544 2234.8 2249.259 2261.828 2277.891 2294.233 2305.933 2310.912 2316.034 2323.796 2332.463 2341.03 2345.633 2342.572 2336.751 2333.895 2331.958 2332.477 2335.896 2341.809 2345.114 2343.771 2338.428 2335.939 2331.174 2320.127
2550.835 2545.4 2539.25 2534.089 2528.455 2522.569 2518.675 2514.555 2511.535 2502.513 2494.021 2487.479 2482.926 2479.877 2479.159 2480.415 2482.549 2481.105 2478.037 2473.156 2467.735 2462.687 2457.074 2456.362 2459.545 2461.678 2461.702 2459.036 2454.814 2449.555 2442.381 2434.243 2427.633 2427.816 2435.563 2444.921 2454.348 2459.168 2457.476 2449.57 2438.659 2429.168 2421.004 2412.669 2403.087 2393.525 2386.203 2381.456 2379.05 2376.324 2372.855 2368.505 2363.883 2359.648 2356.405 2351.897 2347.469 2344.349 2340.203 2334.511 2328.125 2320.117 2313.883 2309.126 2308.722 2308.843 2306.984 2303.644 2298.938 2292.298 2281.466 2282.118 2291.629 2299.119 2306.186 2312.79 2317.903 2322.42 2322.574 2321.2 2320.665 2317.645 2309.284 2301.106 2295.142 2292.383 2288.701 2287.169 2288.065 2288.095 2288.349 2288.161 2290.202 2296.837 2303.554 2310.415 2319 2328.232 2336.779 2348.983 2363.032 2375.744 2387.936 2399.232 2410.28 2419.995 2425.692 2427.562 2428.195 2431.96 2433.795 2434.458 2438.758 2445.552 2443.564 2432.536 2419.579 2409.099 2398.338 2392.561 2397.337 2404.616 2416.958 2431.368 2441.743 2451.955 2458.148 2461.515 2463.157 2469.462 2476.664 2482.492 2487.193 2486.841 2481.415 2474.18 2468.636 2461.92 2448.72 2434.689 2423.531 2415.665 2406.696 2401.044 2398.063 2395.218 2392.922 2390.336 2388.769 2386.752 2384.836 2383.304 2381.934 2380.514 2378.992 2378.573 2381.05 2387.035 2391.378 2393.266 2391.975 2390.879 2388.889 2386.889 2385.346 2383.273 2383.575 2386.33 2380.385 2376.267 2369.491 2365.088 2362.49 2359.166 2356.76 2353.772 2349.449 2346.473 2340.793 2334.176 2327.781 2320.773 2313.145 2304.626 2297.044 2291.564 2284.576 2278.973 2274.665 2271.533 2269.101 2266.397 2263.942 2260.993 2259.109 2254.404 2247.428 2241.137 2232.303 2222.22 2214.554 2212.598 2214.245 2217.21 2222.305 2229.585 2233.928 2237.05 2238.51 2232.027 2228.364 2224.205 2211.886 2202.29 2193.842 2185.78 2177.377 2166.486 2154.868 2145.216 2140.32 2135.157 2130.647 2127.362 2122.711 2114.709 2107.778 2099.958 2092.194 2092.194 2092.194 2092.194 2092.194 2092.194 2092.194 2092.194 2092.194 2092.194 2092.194 2092.194 2092.194 2092.194 2092.194 2092.194 2092.194 2092.313 2094.345 2098.137 2102.188 2107.6 2113.68 2117.379 2121.813 2129.612 2137.813 2146.416 2154.659 2161.525 2166.617 2169.587 2172.321 2173.381 2170.9 2167.987 2162.602 2158.089 2152.194 2145.677 2142.729 2146.892 2152.618 2158.783 2162.287 2161.152 2158.2 2155.071 2149.544 2145.313 2147.254 2151.794 2156.838 2163.12 2171.798 2180.757 2188.13 2194.105 2195.777 2199.719 2204.276 2207.302 2213.179 2220.101 2225.737 2232.577 2241.042 2247.977 2253.862 2252.511 2248.832 2243.462 2243.81 2248.726 2254.262 2257.466 2256.548 2248.183 2248.799 2247.003 2233.724 2225.916 2230.152 2244.326 2257.268 2272.974 2285.813 2294.197 2300.006 2307.84 2317.713 2328.576 2337.111 2340.08 2336.369 2331.112 2328.166 2328.245 2330.588 2335.248 2341.761 2347.76 2350.516 2348.965 2347.407 2342.6 2333.089
2550.372 2544.839 2539.515 2533.69 2527.232 2522.349 2518.091 2513.132 2508.59 2500.301 2494.387 2487.658 2481.284 2474.849 2472.672 2470.416 2469.985 2474.34 2475.381 2473.103 2467.965 2463.217 2455.497 2452.055 2453.632 2456.286 2456.903 2455.766 2452.725 2447.278 2440.048 2432.5 2426.267 2425.513 2431.252 2440.79 2450.613 2455.138 2453.941 2446.481 2436.862 2428.464 2419.885 2411.299 2402.05 2393.691 2389.204 2387.232 2385.769 2383.052 2379.991 2375.259 2369.137 2363.894 2360.375 2356.102 2351.044 2346.16 2341.12 2334.144 2328.03 2321.485 2318.45 2317.1 2316.53 2316.091 2313.922 2308.255 2301.899 2295.71 2286.044 2281.327 2287.878 2297.488 2306.02 2314.463 2321.768 2328.121 2328.529 2326.219 2323.692 2319.158 2312.263 2305.906 2300.016 2294.816 2291.333 2290.698 2291.986 2293.109 2293.717 2292.885 2293.598 2300.705 2307.396 2313.993 2322.382 2331.275 2340.539 2352.005 2365.515 2378.771 2392.49 2405.763 2419.293 2430.591 2437.592 2440.505 2441.346 2443.072 2444.871 2445.489 2446.734 2452.263 2452.967 2442.565 2429.233 2418.72 2407.431 2400.408 2404.167 2408.156 2415.83 2429.1 2440.364 2451.36 2459.155 2464.478 2466.442 2471.895 2476.863 2480.25 2481.669 2478.952 2473.895 2468.357 2463.963 2456.932 2446.291 2435.039 2424.829 2416.91 2409.19 2403.219 2400.512 2397.636 2395.114 2392.869 2391.697 2389.564 2387.513 2386.869 2386.505 2385.797 2383.003 2380.491 2382.169 2387.311 2391.038 2392.234 2392.141 2390.591 2388.423 2385.965 2384.35 2383.416 2383.015 2382.916 2377.078 2375.061 2370.359 2366.691 2364.684 2362.787 2360.095 2356.537 2352.971 2349.921 2345.171 2339.742 2331.818 2324.809 2317.417 2309.047 2301.472 2295.116 2288.32 2282.516 2275.452 2267.625 2263.406 2258.851 2254.922 2251.518 2252.609 2252.388 2249.493 2246.501 2239.34 2228.755 2217.775 2206.938 2203.579 2205.073 2210.463 2215.854 2218.764 2224.549 2228 2224.641 2225.955 2227.361 2220.029 2209.336 2198.534 2188.212 2180.011 2170.434 2158.647 2147.233 2139.637 2134.142 2127.549 2122.921 2118.966 2110.532 2103.867 2098.328 2092.194 2092.194 2092.194 2092.194 2092.194 2092.194 2092.194 2092.194 2092.194 2092.194 2092.194 2092.194 2092.194 2092.194 2092.194 2092.194 2092.194 2093.006 2096.193 2100.474 2110.577 2120.766 2128.405 2131.031 2129.551 2134.078 2140.186 2147.812 2155.87 2163.038 2170.332 2174.996 2176.734 2176.937 2174.176 2169.348 2160.953 2155.951 2151.029 2146.517 2146.302 2150.285 2155.071 2160.447 2164.69 2166.161 2164.592 2161.654 2154.253 2145.782 2147.346 2152.871 2156.831 2162.424 2171.162 2180.719 2188.614 2194.647 2196.364 2199.66 2204.958 2209.042 2214.018 2220.281 2226.417 2234.065 2241.981 2248.519 2254.471 2256.566 2255.01 2248.246 2246.558 2252.03 2260.086 2263.214 2256.662 2253.2 2255.46 2252.542 2239.709 2229.402 2229.982 2236.383 2249.706 2264.182 2274.013 2279.847 2287.341 2299.725 2313.104 2324.096 2331.551 2332.51 2328.838 2323.753 2322.149 2326.571 2329.409 2333.641 2339.343 2345.534 2351.777 2354.896 2354.273 2348.391 2336.586
2549.768 2545.047 2540.578 2536.248 2533.162 2530.219 2525.437 2519.906 2513.33 2505.66 2499.088 2491.627 2484.713 2477.918 2473.874 2469.123 2464.761 2465.711 2469.019 2468.819 2467.293 2463.594 2457.067 2452.149 2449.62 2448.075 2449.94 2450.905 2449.142 2444.564 2439.725 2433.108 2426.467 2421.816 2426.209 2435.179 2443.67 2448.896 2449.609 2443.995 2435.49 2427.46 2419.537 2411.455 2403.313 2399.588 2396.391 2393.883 2391.592 2389.217 2384.968 2379.845 2373.619 2367.849 2363.005 2358.612 2353.452 2347.595 2340.359 2332.449 2328.897 2326.96 2325.865 2325.536 2323.841 2321.231 2318.432 2312.407 2304.213 2297.973 2290.094 2283.354 2288.488 2298.429 2308.028 2317.375 2324.47 2330.256 2331.385 2329.403 2325.707 2321.251 2316.275 2311.499 2304.234 2297.564 2294.806 2295.109 2296.299 2298.168 2298.925 2298.364 2298.026 2302.626 2309.252 2315.896 2324.106 2332.365 2342.749 2354.374 2367.484 2380.959 2396.091 2410.907 2425.456 2436.263 2444.814 2449.639 2451.544 2451.282 2453.74 2456.124 2457.557 2460.424 2462.244 2451.783 2437.559 2426.674 2414.89 2411.344 2417.607 2421.351 2422.805 2429.05 2438.681 2447.785 2455.308 2461.8 2466.724 2470.941 2474.642 2476.799 2476.488 2473.905 2469.99 2464.537 2459.383 2450.765 2441.094 2431.808 2424.283 2416.897 2411.133 2405.757 2403.115 2400.169 2397.615 2395.267 2393.644 2391.468 2389.12 2389.34 2390.96 2390.653 2387.734 2384.396 2385.605 2387.801 2390.874 2391.883 2392.48 2390.724 2387.734 2384.27 2382.839 2382.265 2381.106 2378.902 2377.392 2376.041 2373.495 2370.369 2368.179 2365.96 2363.843 2359.855 2355.886 2352.905 2347.627 2341.899 2333.369 2326.413 2318.779 2311.351 2304.64 2299.642 2294.734 2288.869 2280.878 2271.129 2264.121 2257.036 2250.74 2244.193 2243.701 2244.74 2243.657 2245.955 2243.557 2235.159 2224.049 2210.443 2200.601 2196.602 2197.758 2200.109 2204.119 2211.194 2214.479 2211.409 2212.721 2215.581 2219.614 2212.053 2198.453 2185.163 2177.634 2172.159 2161.851 2149.536 2140.665 2133.71 2126.182 2120.934 2117.15 2110.62 2105.081 2098.949 2092.889 2092.29 2092.301 2092.194 2092.194 2092.194 2092.194 2092.194 2092.194 2092.194 2092.194 2092.194 2092.194 2092.194 2092.194 2092.194 2092.194 2092.194 2094.635 2102.34 2114.184 2124.972 2133.654 2138.426 2140.233 2143.024 2146.487 2152.992 2160.605 2167.833 2172.834 2178.728 2182.418 2180.938 2176.665 2171.034 2163.866 2157.859 2153.202 2148.757 2150.006 2155.78 2159.069 2163.509 2168.03 2170.944 2171.079 2166.815 2157.951 2147.723 2151.762 2158.821 2161.516 2163.589 2170.658 2178.472 2184.644 2190.223 2194.127 2198.414 2204.049 2207.469 2211.917 2218.624 2224.108 2231.96 2239.775 2247.022 2254.615 2258.383 2259.885 2255.338 2252.392 2255.378 2261.453 2264.521 2257.596 2258.47 2262.144 2257.692 2243.876 2237.932 2237.347 2232.319 2243.12 2255.271 2264.291 2273.494 2284.492 2296.696 2308.166 2317.123 2322.096 2321.861 2319.741 2317.185 2318.55 2325.923 2331.108 2336.745 2341.673 2345.822 2352.067 2357.033 2355.602 2347.918 2335.251
2549.408 2547.541 2544.254 2542.54 2541.275 2539.66 2535.745 2529.653 2521.914 2513.775 2506.364 2498.784 2491.297 2485.165 2478.573 2471.903 2465.69 2462.803 2462.493 2465.771 2466.036 2462.714 2457.76 2453.835 2448.202 2441.656 2441.508 2442.046 2441.279 2439.334 2437.366 2432.687 2427.793 2421.327 2419.387 2427.625 2435.709 2441.173 2443.853 2441.57 2435.294 2427.792 2419.869 2413.074 2408.781 2405.619 2402.552 2399.106 2396.137 2392.816 2388.155 2382.146 2376.509 2370.044 2365.003 2360.127 2354.892 2348.701 2341.383 2335.958 2333.308 2333.333 2331.967 2330.46 2327.756 2324.034 2319.397 2312.218 2303.945 2298.576 2291.902 2286.559 2290.525 2299.377 2309.725 2318.765 2324.441 2328.634 2330.556 2330.58 2327.957 2325.508 2321.401 2316.002 2307.095 2301.467 2300.511 2301.354 2302.477 2303.943 2305.211 2305.029 2303.722 2304.904 2310.771 2317.125 2325.752 2333.611 2343.976 2355.831 2368.967 2382.945 2398.457 2414.015 2427.691 2438.452 2448.635 2455.854 2459.617 2459.919 2462.889 2465.917 2468.005 2470.153 2470.708 2460.299 2443.932 2431.816 2422.837 2423.929 2431.232 2435.592 2435.914 2435.079 2438.197 2443.906 2449.896 2456.376 2463.698 2467.343 2471.064 2473.248 2472.812 2471.471 2468.416 2464.02 2458.597 2450.153 2441.572 2433.305 2425.789 2418.912 2413.315 2408.566 2405.41 2402.239 2399.962 2397.078 2394.575 2392.459 2390.393 2390.714 2392.194 2392.086 2390.887 2389.124 2389.117 2389.617 2391.345 2392.531 2392.073 2390.461 2385.95 2381.775 2379.975 2379.17 2378.79 2379.023 2379.401 2378.067 2376.542 2374.066 2371.234 2368.853 2366.727 2362.202 2356.724 2353.277 2347.343 2340.702 2331.954 2324.46 2317.649 2311.543 2305.883 2301.422 2297.343 2292.547 2283.545 2275.964 2269.175 2261.199 2252.731 2243.245 2237.361 2235.915 2236.731 2242.455 2243.701 2238.722 2229.574 2214.886 2204.896 2197.563 2192.572 2189.057 2191.429 2196.909 2200.015 2197.392 2197.59 2200.983 2207.164 2206.274 2194.879 2180.559 2171.927 2168.198 2161.125 2150.353 2140.998 2133.494 2127.49 2123.072 2118.678 2114.877 2110.533 2102.979 2098.191 2093.863 2093.658 2092.414 2092.194 2092.194 2092.194 2092.194 2092.194 2092.194 2092.194 2092.194 2092.194 2092.194 2092.194 2092.194 2092.194 2092.194 2093.648 2099.43 2106.685 2116.711 2126.228 2135.928 2144.041 2152.249 2155.335 2159.316 2168.97 2173.554 2176.472 2180.738 2184.654 2184.027 2180.203 2174.338 2167.836 2161.695 2157.089 2153.443 2155.844 2159.726 2163.334 2166.91 2170.923 2175.211 2176.325 2172.132 2162.915 2154.155 2157.675 2168.155 2170.412 2168.673 2171.518 2176.967 2182.875 2189.284 2195.213 2199.797 2204.68 2207.153 2210.948 2218.586 2224.813 2232.841 2240.316 2249.161 2260.3 2264.834 2266.395 2262.427 2256.243 2257.672 2261.968 2264.153 2263.506 2266.097 2269.559 2262.405 2250.243 2243.935 2244.178 2238.369 2238.582 2248.518 2259.795 2273.325 2285.033 2294.307 2300.313 2305.639 2311.221 2311.792 2312.654 2315.456 2319.125 2326.34 2332.044 2338.601 2344.248 2349.706 2355.147 2358.952 2355.964 2345.49 2333.657
2552.9 2549.657 2549.683 2549.938 2550.159 2548.923 2545.692 2538.626 2529.675 2521.286 2512.745 2504.262 2496.421 2489.256 2481.689 2474.36 2467.076 2461.766 2456.153 2457.446 2462.007 2458.554 2455.266 2452.555 2447.985 2441.193 2438.33 2435.333 2431.679 2430.971 2431.396 2430.446 2428.991 2423.263 2415.922 2419.607 2428.524 2434.469 2438.372 2438.468 2434.853 2428.373 2422.807 2417.525 2413.804 2409.46 2405.36 2401.088 2396.975 2393.763 2388.646 2381.978 2376.226 2370.573 2365.147 2360.096 2355.561 2350.461 2344.057 2341.271 2339.896 2337.511 2334.597 2331.531 2327.229 2322.424 2316.556 2307.929 2301.005 2296.902 2292.034 2288.747 2290.946 2297.668 2307.921 2317.055 2322.012 2324.711 2328.621 2332.619 2334.093 2330.444 2325.114 2317.993 2309.993 2306.963 2307.883 2309.204 2311.458 2314.45 2316.107 2315.607 2313.904 2312.002 2315.392 2321.517 2330.153 2338.407 2348.251 2358.73 2370.314 2385.569 2401.173 2416.398 2429.415 2441.04 2452.327 2461.859 2466.969 2468.936 2472.15 2475.419 2477.531 2479.219 2478.482 2469.596 2452.465 2437.83 2434.88 2437.638 2441.931 2446.039 2447.552 2444.66 2441.711 2444.988 2449.538 2454.648 2461.097 2464.374 2467.9 2471.088 2470.219 2468.693 2466.8 2464.47 2460.112 2452.726 2446.285 2438.75 2430.483 2422.823 2416.077 2410.982 2407.475 2404.092 2401.563 2398.846 2395.956 2393.444 2391.642 2391.85 2392.389 2392.086 2391.302 2389.85 2389.727 2390.57 2390.979 2391.775 2390.412 2387.151 2381.14 2377.297 2374.744 2372.3 2371.625 2374.304 2376.562 2377.616 2377.61 2375.234 2371.007 2370.024 2367.817 2363.576 2357.698 2353.107 2347.076 2339.253 2329.637 2320.919 2312.556 2307.665 2304.601 2301.43 2298.263 2294.072 2288.288 2279.812 2271.855 2264.462 2256.912 2248.014 2237.856 2230.06 2229.445 2235.332 2238.169 2235.901 2230.029 2219.327 2212.257 2206.678 2199.353 2187.592 2183.379 2183.926 2185.393 2183.855 2184.679 2190.028 2195.054 2195.925 2189.168 2177.829 2167.1 2161.833 2156.308 2147.647 2141.311 2136.01 2131.946 2127.178 2122.504 2119.271 2112.941 2107.264 2105.236 2103.07 2099.933 2094.822 2092.194 2092.194 2092.194 2092.194 2092.194 2092.194 2092.194 2092.194 2092.194 2092.194 2092.194 2092.194 2092.194 2092.194 2093.365 2096.165 2096.681 2102.49 2112.85 2127.042 2142.369 2157.461 2162.277 2165.064 2172.36 2173.048 2175.47 2180.499 2184.83 2186.104 2184.343 2178.955 2172.105 2165.622 2159.521 2157.854 2160.703 2162.76 2168.215 2171.42 2174.096 2179.77 2182.241 2178.867 2168.861 2158.408 2159.912 2172.436 2175.298 2170.594 2172 2178.351 2184.841 2190.934 2197.302 2202.883 2207.587 2210.676 2214.116 2219.861 2228.944 2238.923 2246.86 2255.532 2265.499 2271.385 2273.397 2269.08 2262.66 2263.4 2265.629 2266.358 2267.608 2273.897 2277.415 2268.015 2257.696 2252.214 2252.719 2248.877 2241.25 2245.503 2256.485 2269.69 2280.206 2286.575 2291.527 2294.982 2299.651 2304.036 2308.208 2315.641 2320.553 2327.281 2331.99 2337.304 2343.698 2352.178 2358.916 2361.997 2357.997 2344.76 2332.804
2553.049 2551.825 2554.411 2557.651 2558.025 2557.688 2556.367 2547.86 2535.72 2526.251 2516.859 2507.62 2498.397 2490.793 2482.911 2474.152 2465.25 2460.273 2454.806 2451.814 2451.44 2451.468 2448.089 2445.892 2444.024 2441.467 2437.444 2432.319 2427.415 2425.712 2423.151 2422.643 2424.944 2420.284 2414.721 2414.205 2420.744 2429.05 2433.834 2434.899 2433.736 2430.173 2426.637 2420.76 2415.356 2409.961 2404.945 2400.975 2396.6 2391.875 2386.51 2379.698 2373.789 2368.729 2363.048 2358 2353.935 2350.501 2346.779 2344.303 2342.614 2338.625 2334.015 2330.299 2325.056 2318.38 2311.649 2303.947 2298.232 2294.159 2291.689 2290.852 2290.841 2292.498 2300.102 2310.629 2316.698 2319.724 2327.236 2333.771 2336.765 2331.915 2325.8 2318.971 2313.549 2313.608 2316.125 2318.886 2322.313 2326.893 2329.108 2328.621 2326.481 2323.417 2324.736 2330.595 2338.476 2347.137 2356.215 2365.526 2376.58 2390.962 2406.662 2421.247 2434.158 2445.459 2457.933 2469.092 2475.242 2478.577 2482.686 2486.327 2487.764 2487.591 2486.062 2477.757 2461.93 2447.805 2448.343 2450.649 2452.187 2454.836 2456.625 2452.407 2447.716 2449.621 2455.429 2460.617 2463.145 2464.699 2467.53 2470.339 2468.911 2465.817 2464.347 2462.75 2459.876 2454.275 2449.242 2441.821 2434.16 2426.161 2418.473 2412.736 2408.719 2405.439 2402.514 2399.941 2397.322 2394.027 2392.191 2391.941 2392.197 2391.511 2390.344 2388.798 2389.136 2389.23 2388.421 2389.132 2389.825 2384.194 2377.22 2372.273 2367.485 2363.935 2362.064 2365.067 2368.197 2372.626 2373.198 2371.174 2367.401 2367.935 2368.078 2366.699 2362.257 2357.172 2349.548 2340.357 2331.169 2319.991 2307.482 2301.711 2300.118 2299.374 2297.796 2295.216 2290.919 2282.447 2275.475 2269.114 2263.379 2257.903 2246.817 2232.991 2225.036 2225.689 2228.519 2226.863 2221.587 2219.25 2214.5 2210.288 2206.91 2193.394 2183.023 2176.127 2172.239 2171.755 2173.517 2178.721 2184.346 2186.209 2183.423 2175.029 2165.173 2157.922 2152.774 2147.051 2143.807 2140.267 2136.417 2131.197 2125.962 2121.507 2115.581 2113.776 2117.452 2116.905 2108.876 2099.456 2092.308 2092.194 2092.194 2092.194 2092.194 2092.194 2092.194 2092.194 2092.194 2092.194 2092.194 2092.194 2092.194 2092.194 2093.375 2095.883 2093.551 2095.989 2105.016 2119.384 2137.353 2153.159 2158.179 2159.635 2164.052 2168.599 2173.435 2179.095 2183.438 2184.038 2185.426 2183.18 2176.466 2168.863 2162.21 2162.037 2164.563 2167.143 2172.062 2175.292 2178.695 2183.243 2186.313 2183.801 2174.801 2164.428 2162.538 2172.825 2179.163 2174.21 2172.459 2180.099 2187.044 2192.678 2198.454 2204.275 2208.769 2214.67 2219.92 2223.478 2231.749 2243.619 2252.806 2261.347 2268.813 2275.585 2279.354 2275.718 2268.323 2269.115 2271.542 2271.183 2271.015 2277.556 2281.594 2274.522 2264.761 2256.186 2256.504 2255.747 2247.002 2243.921 2252.179 2262.302 2272.209 2281.4 2288.209 2293.863 2298.887 2303.651 2307.598 2314.467 2319.195 2326.57 2330.095 2336.54 2341.99 2352.377 2360.154 2364.317 2361.291 2348.053 2335.854
2550.648 2551.86 2557.956 2562.86 2564.234 2564.634 2563.918 2555.959 2542.251 2530.375 2519.638 2509.062 2500.21 2491.982 2483.641 2473.561 2464.969 2459.7 2454.273 2449.082 2444.181 2442.028 2440.333 2437.435 2435.981 2435.56 2433.032 2430.773 2428.402 2426.467 2420.64 2416.511 2415.897 2413.42 2407.916 2408.871 2416.458 2425.25 2430.563 2431.876 2430.785 2430.369 2426.93 2420.221 2413.462 2407.158 2402.038 2399.007 2395.414 2390.599 2384.211 2377.289 2371.217 2365.1 2359.368 2354.467 2351.062 2348.859 2346.624 2343.793 2340.782 2335.768 2331.241 2327.298 2322.469 2315.062 2306.905 2300.905 2296.346 2293.427 2294.564 2295.773 2293.566 2290.343 2292.816 2301.659 2309.057 2316.086 2325.474 2331.943 2334.13 2329.434 2324.882 2320.212 2317.493 2319.948 2325.032 2329.083 2333.654 2338.857 2342.987 2344.866 2342.168 2339.055 2339.56 2343.8 2351.516 2358.935 2366.086 2375.429 2388.126 2400.232 2415.017 2429.786 2443.021 2454.038 2467.117 2477.99 2484.727 2489.402 2494.284 2497.377 2497.781 2496.723 2493.756 2484.458 2470.483 2459.757 2460.47 2463.411 2464.466 2464.885 2466.039 2461.412 2455.549 2456.425 2463.587 2468.837 2469.246 2468.916 2470.795 2470.824 2468.434 2464.392 2461.657 2458.988 2456.396 2453.169 2448.462 2441.722 2435.659 2428.287 2420.586 2414.131 2409.714 2405.974 2402.946 2399.956 2397.364 2394.131 2392.513 2391.212 2390.403 2389.98 2389.075 2387.212 2385.831 2384.678 2383.2 2384.396 2386.753 2381.482 2374.432 2368.308 2362.278 2356.871 2352.681 2354.172 2358.628 2364.346 2363.899 2363.34 2362.606 2362.474 2366.756 2369.609 2368.118 2361.236 2352.825 2343.148 2334.719 2324.087 2308.999 2298.201 2295.166 2295.66 2294.74 2294.576 2293.115 2287.985 2283.373 2279.059 2274.16 2267.165 2255.079 2240.367 2226.384 2218.203 2216.377 2214.765 2210.187 2211.037 2208.314 2204.574 2205.248 2197.997 2188.32 2178.746 2170.422 2166.866 2166.06 2169.443 2175.016 2177.501 2177.058 2172.487 2165.136 2159.204 2154.417 2150.643 2147.53 2142.985 2138.003 2132.823 2126.51 2122.492 2120.921 2121.37 2126.473 2128.729 2118.051 2104.404 2095.158 2092.194 2092.194 2092.194 2092.194 2092.194 2092.194 2092.194 2092.194 2092.194 2092.194 2092.194 2092.337 2094.554 2096.35 2097.894 2096.142 2095.239 2099.99 2113.005 2127.795 2139.941 2146.977 2151.106 2157.589 2165.68 2171.899 2175.302 2174.949 2179.066 2185.752 2188.669 2179.412 2170.462 2166.85 2168.385 2169.565 2169.529 2174.208 2178.988 2182.278 2186.8 2191.109 2190.667 2182.58 2173.632 2167.36 2173.34 2184.056 2182.095 2179.567 2183.908 2190.15 2195.321 2200.866 2206.412 2209.839 2215.758 2220.717 2226.557 2234.636 2244.97 2253.625 2263.787 2272.688 2278.218 2282.783 2281.039 2275.5 2277.446 2279.719 2277.585 2274.651 2279.323 2282.69 2277.392 2267.914 2258.611 2257.752 2258.534 2253.139 2247.74 2253.785 2263.354 2274.227 2283.987 2291.148 2297.735 2304.32 2307.854 2312.502 2319.218 2325.022 2331.441 2336.525 2342.347 2347.814 2354.484 2361.191 2365.556 2365.047 2354.392 2343.794
2546.741 2549.626 2557.02 2564.078 2567.577 2569.999 2568.609 2559.796 2546.846 2533.794 2521.674 2509.342 2500.219 2491.733 2482.783 2472.627 2464.42 2458.718 2452.608 2447.732 2443.008 2439.248 2435.991 2432.313 2428.814 2427.878 2427.43 2427.593 2427.59 2425.284 2420.402 2416.572 2413.541 2406.303 2402.745 2407.367 2415.97 2422.678 2427.219 2429.36 2428.747 2427.611 2424.02 2417.439 2409.838 2403.165 2397.225 2394.206 2393.125 2389.37 2383.498 2376.855 2370.366 2364.541 2358.362 2353.406 2349.502 2345.282 2343.117 2338.659 2334.356 2330.161 2325.394 2321.993 2318.639 2309.754 2302.953 2299.477 2296.773 2298.24 2301.624 2303.309 2300.215 2292.584 2290.177 2293.963 2301.124 2311.893 2322.41 2329.284 2331.022 2325.885 2321.775 2319.179 2320.725 2325.404 2332.202 2337.755 2345.927 2354.761 2365.123 2369.45 2365.226 2361.14 2361.416 2362.857 2369.66 2375.237 2379.668 2387.798 2400.191 2412.435 2425.793 2441.611 2455.463 2467.259 2479.626 2489.54 2496.581 2502.016 2506.115 2507.986 2508.282 2507.292 2501.797 2490.877 2478.689 2471.573 2473.928 2477.149 2477.643 2476.954 2475.771 2471.094 2466.535 2467.781 2473.666 2476.136 2474.666 2473.948 2473.9 2472.318 2468.925 2464.223 2460.069 2455.912 2452.318 2449.095 2444.12 2438.372 2432.585 2427.144 2420.298 2413.75 2408.879 2405.75 2403.219 2400.114 2396.671 2393.792 2391.622 2390.324 2388.731 2387.148 2385.407 2384.07 2381.975 2379.717 2377.409 2377.793 2378.389 2376.099 2371.585 2366.559 2359.717 2352.481 2346.09 2344.44 2348.727 2353.562 2354.25 2354.748 2353.786 2354.648 2361.691 2367.551 2368.585 2362.546 2355.184 2347.948 2341.167 2335.226 2320.421 2297.12 2290.651 2291.33 2290.103 2291.428 2293.953 2293.644 2292.906 2290.74 2284.333 2273.632 2260.49 2246.257 2233.138 2218.169 2208.405 2203.97 2199.525 2200.455 2200.499 2198.017 2196.16 2196.758 2192.477 2184.997 2176.628 2168.83 2161.958 2162.001 2167.575 2170.016 2169.928 2167.641 2161.13 2160.279 2155.853 2151.054 2148.341 2143.033 2137.277 2132.567 2127.129 2122.895 2122.367 2123.997 2131.17 2137.09 2126.794 2108.25 2092.241 2092.194 2092.194 2092.194 2092.194 2092.194 2092.194 2092.194 2092.194 2092.194 2092.194 2092.194 2092.763 2096.863 2098.483 2101.115 2105.081 2100.865 2099.745 2106.069 2116.719 2126.808 2136.211 2145.671 2156.133 2163.118 2166.836 2167.406 2168.99 2175.489 2186.146 2193.413 2182.152 2172.973 2170.211 2173.146 2172.934 2170.942 2176.021 2182.12 2186.989 2192.097 2195.897 2195.873 2188.47 2181.288 2172.99 2172.792 2184.621 2185.924 2186.512 2189.644 2194.633 2197.857 2202.978 2208.79 2214.54 2218.407 2221.39 2226.913 2233.157 2241.482 2250.427 2262.322 2273.187 2279.678 2285.003 2286.511 2284.281 2286.178 2285.642 2281.01 2278.065 2281.497 2283.78 2277.745 2269.603 2264.642 2262.565 2263.545 2260.58 2253.197 2256.021 2264.847 2275.524 2284.623 2292.826 2299.121 2304.039 2308.169 2315.551 2323.503 2330.153 2334.204 2340.215 2346.208 2352.344 2356.216 2361.969 2367.284 2369.584 2364.048 2353.639
2539.52 2544.568 2551.507 2559.195 2564.643 2568.074 2568.008 2559.933 2547.156 2535.631 2522.427 2508.791 2499.125 2489.294 2480.53 2472.151 2464.793 2459.608 2453.584 2449.224 2445.814 2442.268 2437.445 2434.418 2430.871 2427.247 2423.814 2420.139 2419.439 2418.098 2416.51 2414.062 2410.781 2404.219 2401.122 2407.238 2416.177 2419.744 2421.978 2423.647 2424.151 2423.07 2420.352 2414.753 2406.321 2399.098 2392.585 2389.316 2389.203 2387.446 2383.259 2378.312 2372.199 2367.105 2360.968 2355.412 2350.305 2343.49 2338.776 2332.832 2330.085 2326.216 2319.98 2314.594 2309.819 2303.538 2300.745 2300.199 2301.094 2305.052 2307.65 2308.282 2305.326 2296.478 2291.067 2289.88 2295.748 2306.472 2318.091 2326.126 2327.439 2321.558 2316.095 2314.546 2319.94 2327.203 2336.758 2345.089 2356.028 2369.99 2386.819 2396.003 2394.468 2390.588 2388.795 2385.217 2390.49 2396.536 2399.516 2404.614 2415.581 2428.883 2441.849 2457.209 2470.199 2482.487 2494.521 2504.775 2512.001 2516.769 2519.964 2521.12 2521.44 2519.71 2512.445 2501.116 2490.143 2484.055 2487.378 2490.62 2490.584 2488.727 2484.807 2480.428 2478.652 2481.163 2483.843 2483.834 2481.566 2478.556 2476.042 2473.349 2469.199 2465.136 2459.429 2453.423 2448.779 2444.137 2438.148 2432.302 2426.662 2421.262 2416.13 2410.625 2406.115 2404.071 2402.681 2400.022 2396.2 2392.951 2390.564 2388.604 2386.078 2383.527 2380.757 2379.276 2378.615 2376.492 2373.776 2372.082 2371.489 2370.704 2367.577 2363.544 2357.398 2350.018 2341.959 2336.957 2338.772 2341.958 2344.02 2346.305 2344.803 2347.455 2355.639 2361.918 2363.95 2360.424 2356.805 2354.603 2351.026 2348.591 2334.405 2300.339 2288.608 2286.027 2284.821 2286.728 2289.43 2292.705 2295.567 2295.373 2290.269 2276.328 2262.108 2248.218 2237.304 2224.452 2210.528 2201.247 2194.414 2192.466 2190.061 2187.59 2185.291 2189.721 2190.04 2187.036 2179.793 2169.722 2161.191 2158.012 2161.672 2163.694 2163.23 2160.896 2159.255 2158.785 2154.312 2148.612 2145.889 2142.121 2138.032 2133.27 2126.937 2122.176 2118.227 2118.504 2124.854 2130.03 2125.303 2108.902 2092.194 2092.194 2092.194 2092.194 2092.194 2092.194 2092.194 2092.194 2092.194 2092.194 2092.194 2092.194 2092.516 2096.475 2099.212 2104.875 2110.65 2108.988 2106.981 2107.069 2109.648 2118.103 2130.471 2144.234 2153.969 2158.202 2159.425 2161.298 2169.149 2179.289 2190.373 2196.935 2186.633 2177.331 2174.273 2178.522 2179.159 2176.212 2177.853 2183.134 2190.123 2195.275 2197.348 2195.987 2191.529 2187.226 2181.636 2178.487 2181.67 2185.736 2188.86 2193.709 2197.702 2199.877 2204.056 2209.77 2218.052 2221.73 2223.712 2228.173 2233.609 2241.295 2249.138 2259.049 2270.055 2278.143 2285.654 2291.868 2293.651 2294.615 2291.759 2288.287 2287.724 2287.537 2286.247 2279.871 2273.844 2268.017 2265.51 2267.926 2266.801 2257.985 2256.255 2264.361 2274.844 2284.109 2291.731 2296.476 2299.959 2306.294 2314.709 2322.048 2328.946 2333.288 2339.979 2345.581 2350.712 2353.935 2360.006 2366.453 2370.799 2370.216 2361.123
2536.773 2538.271 2543.217 2549.891 2555.919 2559.409 2560.272 2554.56 2544.605 2534.145 2519.867 2507.238 2498.312 2488.868 2480.202 2472.922 2467.007 2462.542 2459.432 2455.959 2452.913 2449.977 2445.59 2440.989 2438.099 2432.82 2424.952 2416.245 2413.204 2411.353 2407.955 2406.791 2405.605 2402.424 2397.565 2402.197 2411.001 2414.302 2414.797 2415.142 2415.679 2416.56 2415.508 2411.644 2403.806 2395.656 2387.966 2382.667 2383.34 2384.25 2383.32 2379.915 2374.588 2369.043 2363.132 2357.068 2351.135 2344.127 2337.711 2332.007 2329.842 2323.575 2316.179 2308.824 2302.79 2301.565 2302.397 2302.877 2305.288 2309.834 2311.358 2310.434 2306.658 2299.03 2292.003 2288.479 2293.157 2302.139 2313.689 2322.907 2323.781 2316.542 2309.013 2308.127 2316.081 2327.635 2343.179 2356.14 2367.03 2380.598 2398.186 2412.801 2420.207 2419.987 2412.446 2405.78 2416.246 2426.007 2424.868 2426.189 2436.435 2449.452 2462.037 2474.139 2485.45 2498.583 2511.562 2523.396 2529.778 2533.861 2537.499 2539.052 2538.106 2534.442 2527.921 2517.834 2506.829 2499.435 2501.8 2505.73 2505.833 2501.258 2495.672 2492.458 2492.063 2493.706 2494.659 2493.29 2490.21 2486.03 2481.361 2477.051 2472.91 2466.856 2460.198 2452.721 2447.123 2440.082 2433.229 2426.407 2420.007 2414.79 2410.047 2405.309 2401.982 2400.226 2399.362 2398.033 2395.213 2392 2389.727 2386.66 2383.461 2380.183 2377.152 2375.064 2373.998 2372.064 2369.33 2366.662 2366.08 2365.869 2363.555 2360.254 2354.898 2347.725 2339.512 2332.516 2330.451 2330.796 2333.404 2336.583 2334.841 2341.359 2348.591 2352.03 2353.75 2349.512 2347.129 2351.313 2357.338 2355.439 2339.136 2304.629 2288.759 2282.456 2279.107 2280.061 2282.767 2286.856 2291.34 2292.228 2288.212 2275.78 2263.328 2250.801 2240.694 2231.781 2218.391 2206.177 2197.895 2190.957 2183.538 2178.014 2174.444 2178.779 2182.219 2184.164 2179.821 2169.806 2161.842 2157.251 2156.544 2158.36 2157.669 2154.069 2151.334 2153.09 2151.873 2148.203 2144.691 2141.844 2138.252 2133.472 2126.412 2119.788 2112.497 2110.864 2115.398 2115.403 2108.926 2095.29 2092.194 2092.194 2092.194 2092.194 2092.194 2092.194 2092.194 2092.194 2092.194 2092.194 2092.194 2092.194 2094.402 2096.261 2099.709 2106.484 2111.43 2113.718 2114.958 2114.233 2112.674 2115.321 2125.271 2139.262 2147.012 2148.876 2153.734 2160.527 2171.318 2184.028 2196.09 2201.691 2190.842 2182.664 2181.425 2185.125 2187.685 2181.948 2180.931 2184.478 2192.256 2197.602 2199.387 2197.413 2195.002 2192.352 2187.508 2183.178 2182.622 2184.448 2189.428 2194.685 2198.039 2201.813 2205.287 2209.785 2218.917 2222.826 2226.144 2229.181 2233.478 2241.427 2250.212 2259.721 2268.374 2275.461 2283.716 2293.807 2299.282 2302.41 2299.49 2296.829 2297.464 2296.132 2291.573 2285.291 2277.975 2268.977 2267.098 2269.983 2270.471 2263.72 2257.778 2262.728 2274.655 2282.896 2287.391 2291.25 2295.214 2303.328 2311.106 2319.063 2327.834 2332.832 2337.586 2341.702 2347.786 2354.333 2362.16 2368.764 2371.095 2374.715 2367.615
2537.624 2533.825 2533.548 2538.96 2544.926 2547.863 2549.118 2545.981 2538.979 2527.671 2514.936 2504.547 2496.439 2489.243 2481.353 2475.234 2470.088 2466.451 2465.201 2462.984 2459.296 2455.521 2451.952 2447.269 2443.758 2438.864 2430.313 2420.704 2414.352 2409.918 2404.552 2401.681 2399.603 2397.961 2393.394 2393.498 2397.307 2402.227 2403.819 2405.029 2406.316 2408.134 2408.484 2406.871 2401.207 2392.11 2383.798 2377.452 2378.113 2381.215 2382.45 2379.951 2375.331 2368.916 2362.992 2356.672 2350.005 2343.875 2337.892 2332.01 2326.604 2319.142 2312.444 2306.73 2303.643 2306.422 2309.119 2308.326 2309.278 2314.08 2314.577 2311.516 2305.479 2297.711 2290.516 2287.566 2292.2 2300.194 2310.981 2320.118 2320.075 2311.403 2303.393 2304.826 2314.957 2330.443 2348.556 2366.24 2381.003 2393.92 2410.975 2425.436 2435.759 2439.884 2429.383 2425.913 2446.035 2460.655 2453.813 2452.811 2459.029 2469.948 2481.139 2492.31 2504.266 2517.544 2530.584 2543.811 2553.818 2556.563 2558.444 2560.187 2558.75 2554.687 2547.092 2536.978 2526.539 2517.549 2518.414 2521.848 2521.809 2516.07 2509.427 2505.654 2506.337 2507.651 2507.708 2504.726 2500.572 2496.358 2490.389 2484.048 2477.858 2470.724 2463.207 2454.842 2447.944 2439.27 2431.815 2424.324 2416.411 2412.093 2405.984 2401.61 2399.552 2396.629 2394.969 2394.824 2394.321 2392.503 2390.03 2386.065 2382.479 2378.988 2374.558 2370.746 2368.511 2366.962 2364.096 2360.685 2359.935 2360.422 2358.828 2356.936 2353.112 2346.247 2338.553 2330.521 2323.784 2320.226 2322.148 2325.711 2327.793 2335.179 2338.013 2336.944 2335.423 2332.109 2329.768 2337.585 2351.298 2353.546 2341.503 2309.77 2290.697 2282.664 2275.406 2272.267 2276.496 2281.882 2286.902 2287.826 2282.139 2271.764 2263.232 2253.447 2243.293 2236.708 2227.486 2214.563 2204.692 2194.051 2185.263 2178.205 2171.916 2171.542 2174.081 2177.699 2176.978 2170.53 2161.123 2154.425 2151.454 2153.161 2152.295 2149.323 2145.858 2147.836 2149.327 2148.584 2144.738 2141.302 2137.669 2132.525 2125.693 2118.546 2110.54 2105.098 2103.707 2101.617 2095.564 2092.388 2092.194 2092.194 2092.194 2092.194 2092.194 2092.194 2092.194 2092.194 2092.194 2092.194 2092.194 2092.646 2095.302 2096.22 2097.855 2101.439 2107.592 2113.626 2120.11 2122.282 2121.204 2120.373 2124.468 2133.117 2140.042 2145.155 2151.478 2160.835 2172.32 2185.583 2197.802 2202.621 2189.815 2184.59 2186.027 2191.543 2194.821 2186.632 2183.887 2187.524 2193.998 2198.506 2202.335 2202.993 2200.193 2196.623 2191.716 2188.747 2186.595 2186.239 2190.547 2194.68 2197.983 2202.973 2208.059 2211.876 2217.927 2222.5 2228.707 2230.927 2232.242 2239.638 2248.39 2259.344 2269.056 2277.952 2286.836 2296.678 2303.083 2305.967 2304.357 2303.073 2304.617 2304.693 2300.167 2290.545 2280.71 2271.682 2268.607 2271.225 2274.23 2269.814 2263.208 2264.154 2271.068 2277.699 2281.835 2285.605 2290.812 2298.235 2307.838 2318.093 2327.447 2332.055 2334.688 2339.29 2346.256 2355.742 2366.459 2374.531 2376.852 2379.893 2374.63
2539.069 2532.918 2527.15 2528.07 2532.619 2535.956 2537.322 2534.566 2527.868 2518.594 2508.483 2499.854 2493.129 2487.774 2481.92 2477.128 2472.662 2469.138 2467.058 2465.109 2462.031 2457.51 2454.342 2450.686 2446.714 2442.592 2436.415 2428.58 2422.61 2416.23 2410.361 2404.267 2399.052 2397.049 2394.258 2390.719 2385.994 2385.213 2389.451 2393.586 2395.975 2397.189 2397.84 2398.599 2396.88 2389.786 2381.357 2374.783 2371.911 2376.43 2378.724 2377.197 2373.142 2367.206 2361.404 2354.732 2346.79 2340.696 2334.894 2328.289 2320.092 2315.126 2311.729 2310.13 2310.891 2315.725 2317.473 2315.378 2315.194 2317.661 2317.147 2312.052 2303.689 2294.869 2288.745 2287.592 2292.696 2300.438 2309.334 2315.589 2314.868 2306.179 2301.689 2307.192 2318.75 2333.056 2347.936 2365.68 2386.319 2406.807 2430.938 2450.697 2459.091 2457.187 2446.946 2444.735 2464.797 2480.285 2482.472 2486.991 2485.909 2493.298 2504.478 2516.482 2531.194 2543.893 2555.565 2570.663 2591.947 2590.856 2582.241 2581.682 2581.232 2577.254 2568.551 2557.999 2547.662 2538.193 2536.852 2538.517 2536.68 2530.553 2524.062 2519.899 2520.243 2521.478 2520.68 2517.13 2512.713 2507.979 2501.133 2493.303 2485.254 2476.704 2467.337 2457.737 2448.779 2439.429 2432.126 2425.302 2417.716 2412.176 2405.23 2400.53 2397.002 2392.805 2391.009 2390.964 2391.626 2391.957 2390.051 2386.096 2382.178 2378.999 2372.793 2366.827 2363.252 2360.463 2357.324 2354.496 2353.143 2353.886 2352.998 2352.658 2350.374 2345.012 2338.208 2329.839 2321.241 2315.206 2314.922 2319.215 2324.18 2328.309 2329.217 2327.24 2322.932 2319.233 2314.42 2315.011 2322.751 2326.774 2321.22 2306.214 2291.357 2280.702 2271.583 2267.037 2271.961 2280.174 2286.129 2288.556 2281.12 2269.19 2259.529 2251.844 2245.172 2236.502 2226.208 2214.476 2205.479 2196.145 2188.132 2181.327 2174.724 2171.053 2169.404 2171.184 2172.867 2169.681 2159.417 2150.091 2146.942 2149.636 2148.804 2144.331 2138.932 2143.388 2147.918 2147.358 2144.481 2140.935 2136.908 2131.678 2125.391 2117.672 2109.932 2103.384 2097.967 2094.075 2092.444 2092.194 2092.194 2092.194 2092.194 2092.194 2092.194 2092.194 2092.194 2092.194 2092.194 2092.194 2092.194 2092.822 2096.081 2096.962 2098.624 2102.272 2108.988 2115.944 2126.018 2131.599 2132.276 2130.909 2133.694 2137.608 2142.237 2148.392 2154.01 2160.126 2169.967 2182.315 2191.222 2192.872 2185.193 2183.738 2188.323 2194.702 2197.121 2191.89 2187.025 2190.042 2196.021 2199.961 2204.329 2207.069 2204.927 2199.35 2194.724 2194.446 2192.401 2192.119 2193.516 2194.813 2196.47 2201.841 2208.133 2213.529 2220.486 2225.695 2232.071 2234.028 2234.206 2239.185 2246.833 2259.631 2271.134 2282.489 2292.129 2300.761 2306.448 2308.409 2308.655 2308.771 2309.366 2308.594 2303.102 2293.053 2283.956 2278.896 2275.776 2275.537 2277.583 2278.139 2272.018 2267.011 2269.654 2273.285 2277.94 2280.643 2285.569 2294.114 2305.263 2314.535 2321.325 2327.28 2329.774 2335.716 2345.363 2356.182 2368.405 2377.385 2382.953 2386.712 2382.731
2537.979 2532.817 2526.607 2522.547 2518.865 2522.454 2523.964 2522.093 2516.689 2508.891 2501.006 2494.106 2488.666 2483.976 2480.152 2476.578 2472.989 2469.314 2466.353 2463.95 2462.12 2458.506 2455.469 2452.275 2448.793 2444.865 2440.409 2434.54 2429.849 2424.992 2419.104 2411.783 2403.844 2400.455 2398.682 2394.061 2385.432 2378.675 2378.873 2381.236 2382.614 2382.708 2382.841 2384.833 2386.44 2383.27 2376.72 2370.446 2365.019 2367.734 2370.539 2370.339 2367.415 2362.966 2358.055 2351.207 2341.997 2335.484 2329.413 2322.54 2315.979 2314.987 2315.669 2318.08 2320.451 2323.445 2323.714 2321.987 2321.391 2320.404 2319.031 2313.515 2304.531 2294.025 2288.202 2287.993 2292.404 2298.766 2305.627 2308.929 2308.137 2301.11 2300.565 2310.392 2325.056 2338.107 2350.164 2366.217 2385.178 2410.246 2446.874 2476.794 2490.222 2479.146 2463.36 2459.489 2474.718 2488.111 2507.944 2524.364 2526.593 2522.974 2533.413 2546.551 2565.303 2584.177 2595.534 2610.532 2645.444 2638.383 2614.424 2609.607 2610.454 2600.084 2588.922 2578.142 2570.146 2562.682 2559.392 2557.202 2552.291 2543.999 2538.174 2535.301 2536.056 2535.415 2533.08 2529.905 2525.093 2518.967 2511.769 2503.257 2494.013 2482.628 2470.118 2457.987 2447.893 2438.978 2429.962 2422.983 2416.425 2410.927 2404.919 2399.792 2394.864 2391.065 2388.451 2387.165 2386.379 2387.406 2386.566 2383.72 2380.633 2376.906 2371.07 2365.239 2359.666 2355.307 2351.477 2348.917 2347.212 2347.177 2346.735 2346.331 2346.088 2342.205 2335.276 2327.952 2320.553 2313.834 2310.031 2314.066 2319.129 2321.764 2322.082 2320.878 2317.577 2311.621 2303.518 2297.201 2297.618 2296.669 2294.951 2297.059 2285.675 2273.486 2266.792 2264.538 2269.775 2277.293 2283.88 2286.557 2280.447 2269.309 2255.915 2245.612 2242.314 2233.632 2220.887 2210.043 2202.918 2195.536 2187.457 2181.028 2175.66 2171.339 2167.298 2165.797 2169.851 2166.706 2157.64 2147.743 2144.56 2145.072 2144.138 2138.843 2133.948 2138.328 2142.661 2143.254 2141.256 2140.224 2136.446 2130.551 2124.015 2116.656 2108.996 2102.639 2097.166 2092.598 2092.194 2092.194 2092.194 2092.194 2092.194 2092.194 2092.194 2092.194 2092.194 2092.194 2092.194 2092.194 2092.194 2092.878 2096.379 2097.409 2101.253 2107.219 2113.831 2120.387 2130.619 2137.564 2140.251 2140.917 2144.449 2146.293 2148.575 2154.155 2160.141 2164.587 2169.656 2176.103 2183.475 2184.039 2181.114 2183.536 2190.962 2196.466 2195.324 2191.777 2188.807 2192.486 2196.509 2199.96 2204.589 2207.409 2205.822 2201.803 2198.945 2198.465 2197.808 2197.672 2197.273 2196.733 2196.652 2200.585 2206.766 2212.071 2219.909 2223.612 2229.898 2233.057 2236.073 2240.744 2247.845 2259.343 2271.282 2283.112 2293.237 2300.491 2305.159 2306.749 2308.656 2312.479 2313.138 2309.555 2302.701 2295.099 2288.906 2286.713 2281.075 2280.007 2279.955 2284.063 2280.161 2273.64 2276.023 2277.503 2278.926 2278.537 2281.982 2290.815 2300.843 2308.763 2314.187 2320.749 2327.309 2335.181 2344.996 2355.581 2367.6 2376.761 2383.64 2389.889 2389.272
2532.882 2529.347 2525.619 2520.271 2513.537 2512.793 2511.381 2508.064 2503.774 2497.749 2491.908 2486 2480.318 2478.017 2475.751 2472.627 2470.495 2467.804 2465.198 2462.607 2461.378 2459.427 2456.595 2453.89 2450.816 2446.77 2442.195 2437.181 2432.808 2429.145 2423.484 2416.264 2409.437 2404.293 2402.693 2399.927 2393.773 2386.21 2380.612 2376.269 2371.556 2368.937 2369.081 2370.219 2371.806 2370.628 2367.795 2363.559 2358.845 2357.363 2358.485 2358.73 2357.384 2354.773 2351.193 2344.928 2335.885 2329.613 2323.677 2318.66 2317.632 2319.46 2321.948 2325.1 2327.04 2328.285 2328.693 2327.352 2325.716 2322.719 2319.636 2314.355 2306.559 2296.392 2289.627 2287.831 2290.108 2293.537 2298.388 2300.922 2299.979 2295.436 2299.168 2312.51 2329.395 2344.273 2356.563 2371.732 2385.963 2407.927 2441.592 2476.94 2502.345 2505.515 2485.292 2473.294 2486.256 2503.807 2539.566 2560.149 2578.951 2561.724 2568.853 2579.884 2604.897 2629.429 2642.085 2654.702 2682.045 2668.354 2639.273 2632.45 2641.232 2624.373 2609.982 2597.99 2591.347 2586.178 2582.504 2577.372 2568.849 2558.33 2553.427 2552.838 2553.404 2552.423 2549.605 2545.563 2539.783 2530.813 2521.125 2511.592 2501.811 2488.318 2473.402 2460.324 2447.983 2438.47 2428.791 2420.828 2414.018 2408.031 2402.938 2397.756 2393.094 2390.242 2386.759 2383.541 2381.113 2380.729 2380.541 2379.155 2376.401 2371.399 2366.34 2361.429 2357.452 2353.047 2347.995 2343.668 2340.497 2340.423 2340.479 2339.938 2340.762 2338.381 2331.382 2325.046 2319.615 2311.957 2305.75 2307.507 2311.741 2314.689 2315.007 2314.074 2312.23 2307.066 2299.814 2291.823 2286.011 2281.578 2278.238 2278.261 2272.872 2265.719 2261.842 2259.467 2261.873 2271.658 2278.942 2281.415 2276.14 2264.461 2249.573 2238.016 2236.085 2231.268 2220.429 2209.956 2202.744 2195.651 2187.184 2180.125 2174.272 2169.5 2164.19 2161.109 2164.201 2164.496 2158.902 2149.303 2142.676 2138.272 2136.357 2133.584 2129.558 2132.302 2135.1 2137.096 2137.085 2139.068 2135.843 2130.13 2123.247 2115.343 2107.967 2103.046 2098.424 2092.658 2092.194 2092.194 2092.194 2092.194 2092.194 2092.194 2092.194 2092.194 2092.194 2092.194 2092.194 2092.194 2092.194 2092.69 2096.485 2099.998 2108.098 2116.028 2124.06 2131.49 2137.945 2143.542 2147.106 2148.657 2152.38 2154.683 2156.152 2161.001 2167.335 2171.311 2173.188 2176.142 2179.686 2178.799 2177.615 2183.552 2191.383 2194.953 2190.397 2189.128 2190.594 2194.199 2197.907 2201.417 2205.001 2207.342 2207.76 2205.108 2203.088 2203.529 2203.483 2203.266 2201.636 2199.685 2199.63 2201.389 2204.686 2209.184 2215.862 2222.278 2230.151 2234.638 2239.569 2243.109 2248.815 2259.504 2270.802 2281.628 2290.14 2295.68 2300.738 2303.762 2308.098 2314.314 2316.769 2313.606 2304.861 2297.221 2292.509 2292.444 2286.853 2285.768 2285.071 2290.241 2287.368 2281.406 2283.83 2285.001 2283.348 2280.444 2281.245 2286.761 2296.461 2305.318 2309.287 2317.583 2327.804 2336.24 2343.766 2352.777 2364.228 2374.127 2379.649 2386.304 2390.46
2524.335 2523.567 2521.208 2517.609 2514.259 2510.915 2506.117 2500.331 2494.645 2490.255 2486.836 2481.372 2476.395 2473.54 2469.412 2466.689 2465.658 2465.153 2463.232 2461.433 2460.369 2459.292 2457.047 2454.865 2452.273 2448.066 2442.72 2437.547 2433.048 2428.782 2422.363 2414.619 2408.524 2403.843 2402.224 2401.259 2399.482 2393.296 2389.652 2383.81 2375.216 2369.521 2365.551 2362.633 2358.887 2358.668 2357.936 2355.086 2350.024 2346.904 2346.447 2345.61 2344.962 2343.347 2340.576 2336.259 2329.449 2325.028 2321.739 2321.526 2324.324 2327.028 2328.995 2330.807 2331.886 2332.568 2332.03 2329.536 2326.171 2323.382 2320.043 2316.079 2310.257 2301.499 2293.903 2289.985 2288.848 2289.025 2290.75 2293.187 2292.304 2291.793 2299.021 2312.316 2328.079 2346.127 2360.172 2374.856 2388.836 2407.34 2432.455 2467.395 2500.002 2521.513 2513.433 2491.304 2493.462 2516.354 2564.167 2585.42 2604.728 2603.484 2616.497 2620.007 2639.085 2650.339 2657.288 2665.034 2659.556 2646.419 2632.833 2631.635 2647.823 2635.907 2622.824 2614.349 2608.311 2605.56 2602.397 2594.776 2584.246 2574.859 2570.52 2571.667 2572.082 2574.069 2570.932 2563.822 2555.651 2544.349 2531.804 2519.535 2507.524 2494.111 2478.894 2464.753 2449.942 2438.166 2428.418 2420.179 2413.51 2405.7 2400.689 2395.18 2390.446 2387.062 2383.519 2379.989 2377.013 2373.91 2371.405 2369.739 2367.468 2362.751 2358.773 2355.645 2353.517 2349.217 2345.127 2340.118 2334.049 2332.368 2333.662 2334.466 2334.952 2336.084 2334.301 2325.1 2318.501 2310.153 2302.762 2299.36 2303.191 2306.936 2308.637 2308.014 2307.202 2303.423 2297.69 2290.326 2281.86 2275.138 2269.529 2265.176 2261.751 2259.547 2257.388 2254.758 2255.761 2265.143 2273.316 2276.095 2270.506 2260.45 2245.242 2232.079 2228.474 2227.288 2221.813 2213.111 2204.255 2196.653 2188.038 2179.928 2172.714 2167.278 2161.776 2159.162 2160.866 2163.675 2163.399 2153.54 2143.39 2137.195 2132.927 2128.406 2124.278 2125.483 2127.796 2131.557 2135.915 2138.129 2135.567 2130.032 2123.102 2116.812 2109.818 2104.188 2098.891 2092.307 2092.194 2092.194 2092.194 2092.194 2092.194 2092.194 2092.194 2092.194 2092.194 2092.194 2092.194 2092.326 2093.036 2094.508 2098.29 2105.321 2116.322 2126.648 2135.722 2142.784 2147.876 2152.524 2155.032 2155.197 2159.391 2162.684 2163.922 2167.405 2173.168 2177.27 2179.528 2180.279 2177.628 2173.925 2173.107 2180.96 2187.446 2188.503 2185.434 2187.333 2191.624 2195.902 2199.344 2203.531 2206.564 2208.696 2210.147 2208.439 2207.56 2209.471 2210.056 2209.13 2206.722 2204.301 2202.896 2203.897 2205.59 2210.245 2217.319 2222.508 2230.673 2236.51 2243.439 2246.77 2251.64 2261.01 2271.905 2282.05 2289.376 2294.708 2298.776 2303.276 2308.885 2315.57 2319.53 2317.841 2308.238 2300.765 2297.76 2296.419 2293.095 2291.529 2290.222 2295.002 2292.964 2287.978 2290.567 2291.833 2289.361 2285.214 2283.513 2285.21 2293.875 2304.148 2309.789 2317.725 2327.375 2335.194 2341.571 2350.07 2359.543 2368.965 2374.337 2381.008 2389.416
2514.976 2515.33 2514.297 2512.874 2511.934 2508.313 2504.165 2499.796 2494.702 2491.398 2488.575 2484.833 2480.376 2474.196 2466.291 2462.746 2461.382 2461.549 2459.754 2458.228 2457.295 2457.344 2456.455 2454.953 2452.835 2448.887 2442.738 2436.845 2431.365 2425.873 2417.948 2410.314 2403.251 2399.755 2396.533 2394.715 2395.53 2393.351 2391.533 2386.572 2380.853 2375.406 2367.96 2362.428 2354.033 2354.011 2352.555 2348.562 2343.005 2340.683 2339.164 2337.583 2336.071 2333.446 2331.327 2329.758 2326.764 2325.3 2325.732 2328.84 2331.901 2333.938 2335 2335.676 2335.553 2335.147 2332.547 2328.837 2326.232 2323.719 2321.157 2319.458 2316.316 2309.669 2302.546 2296.591 2291.707 2288.554 2287.889 2288.544 2288.49 2292.455 2301.172 2312.199 2322.643 2340.045 2356.759 2372.799 2387.913 2404.543 2424.523 2454.895 2490.291 2518.514 2529.091 2514.898 2505.57 2523.536 2555.645 2578.749 2592.208 2624.092 2647.714 2650.905 2653.153 2647.03 2639.839 2639.867 2636.586 2628.665 2618.392 2619.199 2631.1 2629.242 2622.906 2618.797 2616.433 2616.416 2614.313 2607.055 2598.3 2590.982 2588.597 2591.818 2593.499 2596.178 2590.095 2579.449 2568.313 2556.724 2542.72 2527.895 2512.251 2499.425 2484.299 2468.248 2453.338 2439.435 2427.005 2417.472 2411.317 2404.208 2399.323 2393.241 2388.892 2384.372 2379.984 2376.301 2372.792 2368.033 2362.392 2358.283 2356.677 2354.106 2351.189 2348.32 2346.373 2343.899 2340.544 2335.7 2329.805 2325.537 2326.677 2328.879 2329.065 2331.965 2333.274 2324.865 2317.023 2310.13 2301.688 2294.451 2295.382 2299.74 2301.45 2300.806 2300.577 2299.157 2295.465 2289.097 2281.51 2274.615 2268.377 2262.647 2257.915 2255.221 2253.511 2251.145 2250.698 2259.716 2267.151 2269.825 2266.64 2257.427 2242.42 2229.526 2221.118 2221.918 2221.089 2215.445 2206.227 2198.031 2188.154 2179.344 2172.359 2165.963 2160.067 2155.677 2155.973 2163.905 2168.259 2156.803 2144.724 2137.737 2131.808 2125.313 2120.475 2119.664 2121.834 2128.049 2134.836 2137.697 2135.12 2130.75 2126.336 2121.212 2114.707 2110.106 2106.494 2096.936 2092.194 2092.194 2092.194 2092.194 2092.194 2092.194 2092.194 2092.194 2092.194 2092.194 2092.194 2092.239 2093.225 2095.98 2099.174 2107.558 2119.477 2131.484 2142.811 2152.316 2160.35 2165.737 2165.002 2162.701 2166.674 2170.625 2170.911 2172.524 2178.37 2182.585 2183.98 2181.125 2173.833 2169.774 2170.223 2175.121 2180.501 2182.004 2182.658 2186.829 2191.857 2196.715 2200.392 2204.481 2208.091 2210.717 2212.428 2213.204 2214.965 2217.517 2217.599 2215.183 2211.488 2207.874 2206.329 2206.053 2208.665 2214.479 2222.113 2226.865 2230.834 2234.136 2241.313 2246.394 2252.749 2262.046 2273.808 2283.447 2291.291 2298.429 2303.208 2306.296 2310.599 2316.957 2320.426 2320.565 2314.074 2306.922 2304.698 2300.958 2298.207 2294.789 2293.513 2300.246 2298.888 2294.815 2298.035 2298.016 2294.483 2290.823 2289.14 2288.504 2292.799 2303.145 2312.108 2319.818 2328.531 2336.931 2342.939 2351.172 2358.917 2366.155 2372.375 2379.5 2389.638
2509.746 2508.049 2505.508 2504.306 2504.013 2501.865 2498.518 2495.365 2491.894 2491.151 2489.795 2488.106 2483.256 2475.97 2467.397 2461.733 2458.593 2456.776 2455.748 2454.501 2452.906 2454.189 2455.549 2455.392 2453.408 2449.87 2443.253 2436.365 2429.914 2423.578 2415.903 2409.567 2403.39 2399.24 2393.219 2389.067 2387.398 2386.998 2382.016 2375.653 2372.534 2369.086 2365.221 2361.168 2355.85 2354.628 2351.298 2345.896 2342.357 2341.094 2339.399 2338.17 2335.159 2331.641 2329.952 2330.133 2329.955 2329.742 2331.593 2335.561 2338.12 2339.116 2339.222 2339.439 2338.706 2335.91 2331.886 2328.059 2324.505 2322.312 2321.331 2321.197 2320.089 2317.475 2312.556 2304.36 2295.346 2289.689 2287.291 2286.012 2286.673 2294.572 2307.442 2317.657 2322.536 2333.791 2349.632 2365.781 2382.843 2400.339 2418.497 2445.567 2481.136 2503.172 2518.69 2526.116 2525.337 2533.435 2545.882 2560.079 2574.961 2608.409 2640.578 2658.327 2650.951 2636.769 2626.771 2624.297 2622.139 2614.546 2605.334 2607.58 2618.737 2620.012 2614.338 2613.43 2614.54 2617.21 2619.16 2618.013 2611.906 2605.916 2604.531 2609.105 2613.496 2615.842 2608.274 2594.002 2579.023 2564.875 2550.384 2535.138 2518.438 2503.079 2488.315 2471.862 2456.628 2441.408 2428.46 2418.81 2413.904 2408.073 2402.264 2395.052 2389.491 2383.321 2377.961 2373.543 2369.074 2363.947 2358.267 2352.993 2350.436 2348.112 2344.781 2340.904 2337.89 2334.766 2332.448 2328.43 2324.792 2320.421 2319.774 2321.835 2323.193 2325.933 2329.46 2322.747 2315.244 2309.319 2301.517 2294.301 2290.88 2291.017 2292.978 2293.054 2293.543 2293.863 2291.522 2286.054 2280.693 2274.532 2268.442 2262.959 2258.139 2254.303 2250.274 2247.321 2245.383 2251.321 2260.494 2264.619 2263.638 2255.069 2241.004 2227.807 2219.084 2216.385 2215.94 2214.789 2208.548 2200.307 2188.917 2178.381 2170.724 2165.331 2158.669 2151.578 2148.864 2158.042 2163.104 2155.21 2144.513 2136.484 2129.935 2122.958 2115.414 2114.656 2116.516 2123.206 2132.003 2136.902 2133.473 2128.588 2126.29 2125.305 2124.294 2120.897 2115.405 2104.396 2093.771 2092.194 2092.194 2092.194 2092.194 2092.194 2092.194 2092.194 2092.194 2092.194 2092.194 2092.194 2093.259 2096.418 2098.4 2105.826 2117.834 2131.326 2146.12 2159.269 2172.462 2178.95 2173.69 2169.34 2173.539 2178.963 2178.857 2176.411 2181.244 2183.001 2181.488 2178.283 2171.633 2167.387 2168.831 2170.168 2173.548 2176.885 2180.593 2185.284 2191.704 2196.717 2200.17 2204.314 2207.379 2210.638 2214.58 2216.624 2219.664 2222.416 2222.518 2219.393 2215.38 2211.421 2208.354 2207.263 2210.715 2217.831 2226.409 2232.566 2235.702 2236.696 2239.292 2243.78 2250.786 2261.063 2273.525 2283.641 2293.325 2301.937 2306.961 2308.51 2311.404 2315.205 2317.78 2320.655 2318.916 2314.018 2309.215 2305.029 2303.387 2298.564 2298.347 2305.945 2305.232 2302.598 2305.776 2303.453 2299.438 2296.972 2295.69 2293.62 2292.616 2299.702 2310.286 2319.866 2330.071 2339.327 2345.21 2352.964 2360.817 2366.567 2372.946 2380.152 2389.918
2511.04 2508.018 2504.088 2500.883 2498.921 2496.101 2492.137 2488.261 2485.114 2485.215 2485.838 2484.949 2480.444 2474.137 2467.36 2460.759 2455.703 2452.612 2451.666 2451.65 2449.869 2451.801 2454.667 2455.928 2454.511 2451.546 2445.504 2437.811 2430.823 2424.654 2417.908 2411.843 2405.287 2400.761 2394.121 2386.893 2379.621 2376.773 2370.836 2367.557 2366.542 2364.774 2362.112 2357.688 2355.35 2353.524 2349.713 2345.074 2343.663 2343.823 2344.378 2343.732 2340.378 2335.979 2334.939 2335.599 2335.827 2336.34 2338.126 2341.751 2343.364 2343.655 2343.535 2342.812 2340.868 2336.072 2330.817 2326.471 2321.848 2318.575 2318.368 2319.813 2321.091 2321.786 2318.923 2308.994 2295.927 2290.413 2287.178 2285.639 2286.256 2294.587 2310.497 2320.085 2327.347 2337.477 2349.702 2362.95 2378.411 2394.324 2412.111 2435.114 2462.674 2484.578 2503.239 2517.316 2535.697 2550.729 2553.027 2561.721 2571.078 2591.036 2618.251 2642.411 2644.809 2629.207 2616.714 2611.338 2608.376 2600.802 2591.694 2594.269 2606.486 2609.042 2605.191 2607.633 2611.541 2616.157 2620.946 2624.239 2623.25 2618.504 2617.653 2621.387 2626.053 2629.578 2625.764 2609.278 2588.936 2570.312 2554.954 2539.773 2524.015 2506.058 2490.382 2473.756 2459.598 2444.587 2433.322 2425.664 2419.146 2412.088 2404.339 2397.497 2389.542 2384.26 2379.241 2374.745 2369.331 2364.005 2359.172 2354.751 2350.614 2347.106 2343.099 2338.551 2332.849 2327.767 2323.558 2320.081 2318.524 2315.392 2313.899 2315 2316.403 2317.89 2321.551 2318.617 2312.668 2307.299 2300.708 2293.776 2287.589 2283.577 2283.891 2284.675 2285.877 2287.264 2286.556 2284.328 2279.764 2274.926 2269.186 2264.042 2259.166 2254.349 2248.237 2243.917 2241.679 2244.811 2253.862 2260.621 2262.255 2256.178 2244.555 2230.956 2219.755 2212.419 2209.204 2210.121 2209.236 2203.963 2193.202 2181.802 2172.853 2166.226 2157.994 2149.496 2145.129 2150.39 2154.859 2152.237 2142.717 2133.577 2126 2118.181 2110.435 2108.67 2111.568 2119.43 2128.994 2134.288 2130.227 2124.302 2123.045 2128.792 2133.961 2130.804 2120.727 2107.23 2094.37 2092.194 2092.194 2092.194 2092.194 2092.194 2092.194 2092.194 2092.194 2092.194 2092.194 2092.194 2092.538 2094.241 2098.179 2105.063 2117.62 2132.468 2150.087 2165.836 2179.62 2185.894 2179.766 2176.138 2177.788 2182.717 2181.253 2177.549 2178.046 2176.535 2174.605 2173.888 2169.294 2164.076 2165.569 2167.801 2170.456 2175.156 2181.069 2185.91 2192.281 2197.443 2201.47 2204.751 2207.457 2211.867 2217.282 2219.714 2222.258 2224.535 2225.073 2222.487 2219.145 2215.775 2212.096 2209.99 2212.899 2219.874 2229.005 2237.528 2243.355 2245.017 2243.291 2244.115 2248.429 2258.644 2269.125 2279.234 2290.944 2300.451 2305.089 2306.595 2307.488 2308.033 2311.83 2316.375 2318.434 2317.508 2312.619 2308.864 2307.87 2303.401 2303.429 2309.587 2312.279 2312.549 2313.831 2308.974 2305.563 2303.538 2302.597 2300.064 2294.746 2295.766 2307.617 2316.841 2327.132 2336.003 2341.92 2349.542 2357.922 2364.415 2371.123 2379.259 2388.927
2518.084 2513.461 2509.898 2505.182 2500.783 2496.429 2491.885 2486.943 2482.016 2479.087 2478.995 2477.892 2473.823 2469.667 2464.053 2456.964 2451.397 2448.331 2446.721 2447.312 2447.033 2449.659 2452.998 2455.787 2455.584 2453.371 2448.495 2439.93 2432.301 2425.038 2417.054 2409.669 2402.424 2397.949 2392.484 2383.367 2375.733 2372.515 2369.43 2369.286 2369.457 2368.743 2365.72 2362.304 2360.259 2357.445 2353.439 2350.193 2350.122 2350.612 2350.617 2348.686 2343.681 2339.982 2340.672 2341.314 2341.794 2342.857 2344.26 2346.477 2347.719 2347.477 2346.748 2345.031 2342.208 2336.692 2330.668 2325.193 2319.611 2315.108 2313.338 2315.007 2319.591 2322.754 2320.803 2310.216 2295.607 2290.278 2288.313 2288.333 2289.193 2294.592 2308.9 2321.193 2328.851 2338.707 2353.013 2366.778 2380.21 2393.434 2410.437 2430.499 2451.836 2471.112 2490.148 2504.147 2525.865 2546.992 2548.849 2558.137 2565.649 2576.453 2596.476 2621.343 2637.112 2625.009 2609.577 2599.508 2596.965 2589.819 2580.146 2584.172 2595.501 2595.556 2597.616 2603.175 2608.762 2614.195 2619.67 2624.454 2627.891 2627.704 2628.878 2631.163 2631.893 2633.836 2632.838 2617.664 2595.14 2574.368 2557.993 2541.056 2523.795 2507.323 2492.846 2476.95 2463.568 2450.467 2440.555 2430.909 2421.671 2413.077 2404.548 2398.194 2392.129 2388.753 2383.505 2378.397 2372.699 2367.875 2362.302 2356.885 2352.095 2348.848 2344.686 2340.203 2332.895 2327.066 2320.972 2316.518 2311.824 2308.31 2308.236 2309.975 2310.136 2310.127 2313.033 2314.045 2310.685 2306.541 2299.537 2291.908 2285.665 2280.458 2278.801 2279.04 2279.243 2281.388 2282.417 2285.987 2287.004 2277.263 2269.833 2264.357 2259.6 2254.495 2247.697 2241.821 2237.724 2240.402 2248.635 2257.203 2261.542 2256.719 2246.306 2234.833 2224.614 2214.578 2206.952 2205.317 2208.713 2207.967 2199.676 2188.939 2179.239 2169.391 2159.527 2149.486 2143.615 2143.466 2148.431 2148.997 2142.473 2132.74 2123.665 2115.28 2106.992 2102.26 2106.552 2114.969 2123.087 2126.403 2122.759 2116.449 2117.066 2127.264 2136.734 2136.559 2123.296 2107.628 2094.379 2092.194 2092.194 2092.194 2092.194 2092.194 2092.194 2092.194 2092.194 2092.194 2092.194 2092.194 2092.194 2092.543 2094.935 2102.032 2115.515 2131.077 2150.001 2165.257 2179.135 2185.374 2179.857 2175.579 2175.296 2177.875 2176.354 2175.097 2174.802 2172.768 2169.38 2167.557 2163.445 2160.759 2163.098 2166.331 2169.934 2175.199 2182.007 2187.43 2193.438 2199.229 2204.424 2207.575 2211.085 2216.183 2219.891 2223.626 2226.368 2228.066 2227.71 2225.391 2222.306 2220.01 2217.112 2214.99 2216.596 2221.996 2231.886 2242.528 2250.684 2252.42 2250.045 2248.543 2249.508 2255.146 2262.885 2272.947 2286.531 2295.58 2299.355 2300.434 2299.866 2300.625 2306.408 2310.774 2314.903 2315.836 2315.73 2314.693 2313.89 2309.661 2307.415 2312.917 2319.434 2322.737 2321.831 2315.215 2312.559 2309.861 2308.663 2306.227 2300.221 2297.666 2305.615 2312.955 2320.976 2328.99 2335.235 2342.898 2352.333 2361.002 2367.852 2376.439 2385.628
2524.878 2519.316 2514.999 2509.99 2504.821 2500.502 2495.37 2489.29 2482.693 2476.335 2470.832 2468.223 2466.23 2464.095 2457.834 2451.069 2445.186 2441.911 2441.19 2441.746 2443.031 2445.493 2449.424 2454.189 2455.992 2453.957 2449.615 2440.394 2431.198 2421.72 2412.453 2403.533 2396.761 2392.799 2388.363 2380.107 2377.282 2376.494 2376.41 2376.371 2375.9 2374.386 2372.249 2371.922 2370.253 2365.963 2362.43 2360.997 2360.02 2358.948 2356.979 2352.885 2346.644 2344.911 2345.738 2346.245 2346.893 2348.307 2349.295 2350.336 2351.592 2350.909 2349.026 2346.124 2342.909 2336.905 2330.35 2324.916 2319.275 2313.806 2307.94 2308.173 2314.073 2318.565 2318.732 2309.153 2294.597 2289.331 2290.082 2293.286 2296.123 2295.989 2304.02 2317.746 2329.452 2334.969 2346.651 2362.88 2378.057 2393.37 2412.62 2431.863 2450.567 2467.272 2482.181 2494.617 2512.884 2528.138 2535.1 2544.009 2553.99 2565.352 2581.318 2602.449 2625.186 2624.061 2608.319 2594.058 2586.577 2578.693 2570.462 2575.975 2583.614 2585.919 2591.948 2598.823 2605.318 2611.545 2617.212 2622.798 2627.322 2631.682 2635.332 2637.536 2636.981 2633.168 2625.884 2611.448 2593.419 2576.301 2560.486 2542.794 2524.055 2510.69 2497.158 2482.027 2469.652 2458.295 2447.781 2435.708 2424.367 2416.574 2409.182 2402.631 2398.62 2393.758 2388.331 2382.535 2376.921 2370.946 2365.213 2358.775 2353.9 2349.74 2345.31 2340.661 2332.906 2326.919 2320.319 2314.986 2309.344 2305.215 2302.662 2300.062 2301.467 2302.052 2306.172 2309.217 2308.643 2305.518 2299.133 2292.532 2285.898 2280.139 2275.795 2273.989 2273.694 2275.833 2278.505 2283.307 2285.418 2280.33 2272.941 2264.809 2258.752 2253.413 2247.073 2240.73 2235.335 2235.059 2243.07 2253.015 2260.256 2256.674 2244.163 2233.899 2225.785 2216.182 2205.193 2198.622 2203.2 2207.504 2206.174 2196.866 2185.663 2173.733 2162.427 2152.139 2144.776 2137.755 2137.618 2139.621 2139.083 2134.154 2125.585 2116.214 2105.37 2096.969 2100.554 2108.512 2115.302 2116.915 2112.989 2108.023 2114.141 2125.668 2136.781 2137.807 2124.029 2107.224 2094.271 2092.194 2092.194 2092.194 2092.194 2092.194 2092.194 2092.194 2092.194 2092.194 2092.194 2092.194 2092.194 2092.194 2092.949 2098.703 2109.412 2124.756 2140.62 2156.425 2168.03 2174.196 2171.91 2169.248 2168.553 2169.036 2168.896 2171.105 2172.139 2170.334 2166.677 2163.12 2158.821 2159.006 2162.006 2165.13 2169.307 2174.65 2181.538 2187.52 2194.445 2200.711 2206.378 2210.864 2216.211 2220.794 2223.531 2227.71 2230.684 2231.772 2230.43 2227.826 2226.347 2224.739 2222.307 2220.112 2220.582 2225.785 2236.367 2247.013 2256.138 2257.669 2256.504 2254.618 2253.321 2253.23 2258.098 2268.635 2281.544 2288.481 2291.511 2293.067 2293.967 2297.964 2305.273 2309.931 2314.762 2316.476 2319.151 2322.099 2322.615 2318.469 2313.952 2316.849 2323.996 2329.495 2328.319 2322.143 2318.699 2314.582 2312.306 2309.684 2306.42 2303.688 2303.806 2308.391 2315.022 2323.044 2331.276 2339.714 2349.503 2359.021 2365.156 2372.242 2381.246
2528.211 2523.47 2518.415 2513.293 2508.115 2502.79 2496.865 2489.849 2483.7 2476.28 2466.727 2463.347 2463.616 2461.293 2454.579 2448.964 2442.115 2438.146 2437.147 2437.213 2438.955 2439.646 2442.9 2448.86 2453.848 2452.866 2448.172 2439.04 2428.354 2417.154 2407.489 2397.995 2391.531 2388.731 2385.812 2382.081 2381.615 2382.453 2383.51 2383.841 2382.77 2381.347 2380.651 2380.302 2378.882 2375.964 2372.917 2369.719 2367.124 2364.527 2360.779 2355.233 2350.796 2349.84 2350.189 2350.583 2350.775 2352.744 2353.814 2354.707 2354.942 2353.731 2350.818 2346.64 2342.488 2336.802 2329.914 2324.885 2319.925 2314.635 2306.926 2303.558 2307.345 2312.024 2313.022 2305.536 2292.677 2288.381 2292.078 2300.659 2308.357 2305.305 2303.247 2309.449 2322.024 2329.602 2340.623 2355.753 2370.152 2390.874 2413.401 2432.178 2447.596 2460.659 2471.43 2482.53 2494.679 2505.672 2518.293 2530.664 2540.445 2557.212 2575.513 2592.722 2611.486 2623.732 2613.254 2595.251 2581.56 2571.157 2562.844 2565.745 2576.08 2581.917 2588.637 2595.457 2602.255 2608.886 2614.78 2620.846 2625.844 2630.823 2634.614 2637.759 2639.38 2634.263 2621.917 2601.76 2585.162 2573.962 2561.885 2545.03 2527.223 2514.673 2501.949 2489.542 2478.89 2466.556 2453.357 2440.678 2429.635 2422.278 2415.772 2410.315 2404.866 2398.944 2393.23 2386.743 2379.29 2372.523 2365.901 2358.997 2353.358 2348.953 2342.676 2336.293 2329.845 2324.883 2318.519 2314.372 2310.495 2305.208 2299.949 2294.057 2292.356 2291.942 2296.188 2301.007 2302.737 2300.823 2296.982 2293.083 2287.383 2281.837 2276.007 2271.287 2269.026 2271.419 2275.793 2280.748 2283.528 2281.361 2275.738 2266.223 2258.642 2251.199 2244.488 2239.055 2232.837 2231.133 2237.066 2249.414 2259.349 2255.55 2239.727 2226.295 2222.842 2213.753 2204.241 2196.022 2196.434 2201.71 2208.188 2204.384 2191.743 2179.231 2167.61 2157.204 2147.728 2138.537 2133.338 2129.888 2129.314 2135.078 2130.719 2120.5 2108.243 2097.237 2097.868 2101.737 2106.634 2108.372 2104.345 2101.439 2111.851 2121.983 2132.218 2134.296 2122.33 2105.95 2094.063 2092.194 2092.194 2092.194 2092.194 2092.194 2092.194 2092.194 2092.194 2092.194 2092.194 2092.194 2092.194 2092.194 2092.448 2094.806 2101.272 2114.062 2129.293 2143.221 2153.138 2158.243 2159.762 2160.303 2159.739 2158.475 2158.215 2163.017 2165.792 2165.525 2163.491 2159.986 2156.422 2157.39 2160.727 2165.699 2169.914 2174.955 2182.598 2188.216 2195.057 2200.582 2206.225 2210.748 2217.271 2221.315 2225.793 2230.56 2233.02 2232.32 2230.299 2228.9 2229.442 2229.685 2227.417 2223.725 2224.457 2230.583 2240.304 2250.509 2259.309 2263.271 2262.871 2259.925 2256.724 2254.362 2256.286 2265.98 2275.952 2282.57 2286.442 2290.238 2293.834 2300.49 2309.041 2315.849 2321.224 2323.879 2325.992 2329.739 2330.581 2326.564 2321.888 2322.074 2327.862 2334.084 2333.792 2328.322 2321.514 2316.945 2315.718 2313.209 2311.534 2308.241 2304.632 2306.302 2311.98 2320.353 2330.646 2339.191 2347.689 2355.972 2362.347 2368.898 2377.762
2530.032 2525.262 2520.15 2514.804 2509.71 2503.075 2496.097 2488.382 2482.51 2476.469 2471.462 2470.618 2469.818 2465.898 2459.935 2452.988 2445.555 2439.883 2436.53 2434.917 2435.167 2432.684 2434.17 2439.568 2446.631 2448.576 2444.088 2434.978 2423.251 2411.528 2402.531 2393.422 2388.857 2388.845 2388.142 2387.93 2387.174 2387.73 2390.432 2391.742 2390.83 2389.234 2389.143 2388.734 2386.851 2383.49 2380.113 2376.763 2373.279 2369.74 2364.241 2356.743 2352.311 2353.718 2354.593 2354.639 2354.836 2356.607 2357.573 2357.89 2357.259 2355.988 2352.496 2346.869 2340.707 2335.541 2329.952 2325.56 2321.266 2317.826 2309.929 2303.468 2302.414 2304.256 2304.822 2300.206 2291.072 2288.866 2295.817 2308.786 2320.237 2317.085 2309.023 2304.018 2310.264 2320.217 2333.982 2349.739 2364.742 2386.219 2408.31 2427.408 2442.974 2454.292 2462.633 2469.58 2478.944 2489.082 2503.385 2519.859 2533.846 2552.365 2569.017 2582.466 2598.964 2617.126 2615.506 2602.121 2588.704 2572.788 2557.848 2556.848 2573.825 2579.679 2586.085 2593.271 2601.16 2607.471 2613.32 2618.57 2623.461 2627.131 2631.895 2635.454 2637.111 2635.97 2623.749 2600.893 2583.033 2571.397 2560.622 2545.085 2528.495 2516.656 2505.61 2494.848 2485.193 2471.352 2456.421 2443.791 2433.426 2425.197 2418.809 2413.356 2404.583 2399.317 2393.07 2386.118 2376.996 2370.334 2363.075 2355.229 2351.144 2347.011 2340.935 2334.047 2329.077 2325.361 2320.083 2317.199 2313.438 2308.642 2304.106 2298.029 2291.453 2284.734 2285.361 2290.729 2293.897 2292.498 2290.886 2288.866 2285.198 2282.083 2276.012 2270.045 2266.39 2269.086 2273.876 2279.059 2282.149 2278.986 2275.295 2269.21 2260.985 2251.209 2241.258 2235.379 2229.974 2227.061 2231.708 2242.973 2256.039 2258.627 2235.771 2217.975 2211.567 2207.119 2201.189 2195.032 2188.974 2192.828 2203.99 2207.13 2197.497 2185.63 2172.511 2159.323 2147.081 2139.835 2133.647 2125.816 2121.309 2127.303 2128.064 2122.063 2110.365 2099.833 2096.294 2094.953 2096.556 2097.275 2096.406 2097.663 2103.941 2113.366 2121.15 2124.791 2118.589 2103.956 2093.76 2092.194 2092.194 2092.194 2092.194 2092.194 2092.194 2092.194 2092.194 2092.194 2092.194 2092.194 2092.194 2092.194 2092.194 2092.479 2094.586 2101.909 2115.515 2128.889 2137.778 2141.16 2144.167 2146.88 2147.188 2145.771 2145.224 2151.535 2158.064 2160.788 2159.8 2155.505 2152.707 2155.45 2159.752 2167.529 2172.17 2176.231 2182.695 2187.091 2193.483 2199.46 2206.666 2210.126 2216.237 2219.75 2224.098 2230.434 2232.08 2230.019 2227.764 2227.293 2229.01 2231.178 2229.64 2226.759 2228.113 2233.301 2242.155 2252.438 2261.355 2267.819 2268.216 2264.758 2260.563 2256.791 2257.128 2265.454 2273.996 2281.841 2286.411 2292.398 2298.065 2306.081 2315.618 2324.775 2330.618 2333.49 2335.022 2337.011 2336.637 2332.532 2328.116 2327.597 2332.482 2338.993 2339.321 2332.604 2324.781 2320.751 2318.854 2316.73 2316.069 2312.372 2307.666 2307.149 2311.3 2318.617 2328.449 2337.015 2345.34 2353.663 2361.48 2367.832 2375.253
2530.223 2525.16 2520.292 2514.441 2508.438 2501.305 2494.337 2488.029 2484.344 2480.618 2479.097 2480.234 2478.609 2473.599 2466.753 2458.407 2450.579 2444.56 2439.114 2435.359 2433.199 2428.449 2427.653 2429.948 2435.119 2439.634 2437.182 2428.657 2415.683 2404.625 2398.306 2392.137 2390.932 2393.79 2394.977 2393.975 2392.248 2393.472 2397.116 2399.363 2399.417 2398.34 2397.302 2396.094 2394 2390.396 2386.45 2382.673 2378.607 2374.124 2367.735 2360.14 2356.007 2358.251 2359.207 2359.567 2359.641 2360.608 2360.938 2360.228 2358.595 2356.608 2352.578 2345.771 2339.711 2334.527 2329.736 2325.669 2322.401 2320.424 2314.313 2304.805 2299.859 2297.347 2296.626 2293.67 2289.254 2290.629 2298.388 2311.36 2323 2325.436 2321.111 2311.841 2305.074 2312.256 2325.032 2339.839 2356.813 2375.403 2396.313 2416.827 2434.718 2443.564 2450.364 2457.41 2466.351 2479.393 2496.502 2517.406 2534.085 2549.926 2562.516 2573.878 2590.397 2604.346 2608.766 2602.676 2594.482 2578.477 2559.236 2550.576 2566.896 2576.919 2585.16 2592.896 2600.253 2604.531 2610.456 2614.092 2617.193 2622.609 2628.781 2632.787 2634.406 2634.698 2625.01 2604.293 2585.695 2569.64 2556.726 2543.177 2528.729 2517.681 2506.831 2495.746 2484.68 2471.678 2456.232 2442.819 2431.994 2424.854 2418.429 2411.571 2403.149 2396.371 2389.051 2381.854 2373.943 2366.66 2361.266 2355.654 2352.24 2349.468 2343.955 2337.845 2332.049 2328.145 2322.08 2317.875 2313.843 2308.394 2306.594 2303.684 2294.841 2286.644 2281.251 2280.571 2283.171 2282.492 2281.165 2280.468 2278.848 2277.596 2273.285 2267.739 2262.778 2264.451 2270.385 2274.434 2276.364 2272.811 2269.388 2266.936 2260.509 2251.605 2239.459 2230.955 2225.487 2222.219 2226.593 2236.083 2248.548 2254.631 2234.007 2216.561 2204.242 2198.821 2196.133 2192.782 2185.932 2185.509 2197.05 2204.884 2200.507 2191.073 2177.893 2160.58 2146.284 2138.025 2130.098 2121.277 2114.42 2114.311 2118.163 2117.087 2109.396 2101.464 2096.129 2092.51 2092.376 2092.367 2092.693 2093.927 2095.643 2102.025 2105.53 2109.603 2112.33 2097.577 2092.781 2092.194 2092.194 2092.194 2092.194 2092.194 2092.194 2092.194 2092.194 2092.194 2092.194 2092.194 2092.194 2092.194 2092.194 2092.194 2092.194 2094.265 2100.757 2110.766 2118.125 2120.591 2124.571 2128.194 2129.805 2130.02 2131.561 2139.687 2148.149 2153.027 2153.021 2149.435 2149.024 2153.816 2159.732 2167.462 2172.223 2175.558 2181.266 2185.574 2192.838 2199.98 2208.973 2213.316 2217.915 2220.305 2223.231 2227.6 2228.768 2226.518 2224.715 2224.1 2226.285 2229.45 2228.029 2228.647 2230.586 2234.084 2242.075 2252.037 2261.569 2268.463 2271.17 2269.285 2265.713 2261.312 2260.687 2265.896 2273.265 2281.072 2286.374 2293.329 2300.466 2309.342 2319.214 2329.882 2337.803 2342.74 2344.306 2344.721 2342.343 2338.172 2334.41 2332.525 2337.17 2343.75 2343.502 2336.499 2330.829 2327.537 2323.261 2321.201 2320.529 2316.825 2313.293 2310.896 2311.568 2317.003 2327.388 2336.457 2345.895 2355.024 2361.611 2367.704 2374.562
2528.267 2523.112 2518.766 2512.853 2504.901 2499.281 2494.548 2491.539 2490.496 2488.146 2486.03 2486.103 2484.161 2479.067 2471.594 2463.017 2456.249 2450.353 2443.961 2439.129 2435.211 2430.886 2426.211 2423.861 2423.372 2427.303 2426.212 2418.91 2407.021 2400.385 2398.828 2397.715 2398.813 2401.879 2401.959 2398.869 2397.621 2400.072 2403.456 2406.116 2407.555 2407.189 2404.678 2401.818 2398.676 2395.264 2391.331 2387.421 2382.952 2377.54 2370.115 2364.03 2361.704 2364.04 2364.69 2365.022 2364.661 2364.469 2363.851 2362.46 2359.786 2356.337 2351.585 2344.691 2338.217 2332.839 2328.762 2325.248 2322.382 2320.294 2313.846 2303.557 2297.67 2292.75 2291.168 2290.305 2288.579 2291.643 2300.18 2311.375 2323.034 2330.594 2331.331 2325.553 2314.566 2312.071 2319.713 2332.227 2350.051 2364.673 2383.973 2403.448 2420.827 2430.665 2441.62 2453.557 2465.253 2478.927 2497.136 2517.625 2536.98 2545.592 2555.303 2569.611 2582.27 2589.361 2593.054 2592.19 2589.527 2583.637 2566.432 2548.473 2560.801 2575.855 2583.359 2589.606 2594.406 2598.777 2603.978 2607.72 2611.979 2620.542 2626.395 2629.921 2631.81 2632.363 2624.057 2605.232 2586.148 2568.511 2553.651 2539.918 2528.283 2517.956 2506.458 2494.105 2483.001 2470.921 2456.865 2443.174 2432.025 2425.621 2419.731 2413.502 2404.998 2395.836 2387.229 2379.962 2374.427 2369.089 2365.377 2362.569 2357.559 2353.054 2346.929 2341.078 2333.893 2328.893 2323.178 2317.404 2311.412 2305.953 2303.366 2300.185 2293.669 2287.427 2279.64 2273.919 2271.944 2271.632 2271.187 2270.056 2269.841 2270.723 2268.76 2263.641 2258.494 2257.696 2262.908 2267.205 2268.656 2265.227 2259.904 2258.196 2256.354 2249.754 2239.805 2229.086 2221.681 2218.193 2221.078 2228.606 2236.646 2241.469 2232.166 2219.409 2205.741 2197.502 2192.75 2186.809 2184.271 2178.472 2188.115 2200.596 2202.066 2194.065 2181.707 2165.606 2154.383 2144.044 2131.833 2118.791 2110.82 2105.547 2104.29 2104.686 2102.408 2099.665 2096.279 2092.546 2092.194 2092.194 2092.194 2092.186 2092.479 2094.316 2094.909 2096.612 2099.535 2092.884 2092.194 2092.194 2092.194 2092.194 2092.194 2092.194 2092.194 2092.194 2092.194 2092.194 2092.194 2092.194 2092.194 2092.194 2092.194 2092.194 2092.194 2092.08 2092.454 2096.247 2100.45 2102.662 2105.962 2110.603 2115.156 2118.375 2121.805 2129.552 2136.882 2141.638 2144.446 2144.311 2146.991 2152.55 2158.999 2165.043 2169.995 2174.938 2182.982 2188.601 2196.403 2203.346 2211.587 2217.708 2220.91 2222.354 2223.829 2224.861 2225.159 2222.467 2220.912 2220.774 2222.1 2225.914 2225.381 2228.564 2232.079 2235.93 2242.385 2250.65 2260.145 2267.694 2272.431 2273.157 2270.761 2267.553 2266.75 2267.573 2272.58 2279.663 2284.216 2290.698 2298.375 2307.442 2316.372 2327.879 2339.322 2349.126 2353.433 2353.649 2350.332 2345.104 2340.395 2338.373 2342.082 2347.919 2347.052 2342.687 2337.852 2333.636 2329.223 2326.688 2324.233 2321.551 2319.663 2316.135 2313.885 2317.087 2326.861 2335.675 2345.285 2352.943 2358.399 2364.746 2371.888
2524.634 2519.856 2515.241 2510.834 2503.085 2499.877 2498.488 2498.098 2496.505 2494.238 2492.986 2491.929 2489.189 2483.3 2475.376 2466.715 2460.492 2454.414 2449.624 2445.878 2440.706 2435.632 2429.792 2423.338 2415.712 2415.524 2414.337 2409.921 2404.338 2403.424 2403.459 2405.29 2407.393 2407.865 2406.305 2402.566 2402.104 2406.23 2409.574 2412.088 2413.891 2413.325 2410.172 2406.282 2403.059 2398.98 2394.899 2391.095 2385.611 2379.236 2370.608 2365.531 2366.471 2369.081 2369.204 2369.018 2368.488 2367.901 2366.814 2364.86 2361.249 2357.423 2351.95 2344.261 2337.525 2330.961 2327.588 2323.982 2320.182 2318.266 2311.377 2302.507 2295.075 2290.855 2289.164 2289.651 2291.284 2295.926 2304.28 2314.358 2324.667 2333.487 2338.398 2337.088 2328.087 2318.362 2318.658 2328.833 2343.208 2359.719 2375.898 2392.083 2408.331 2425.416 2439.449 2454.537 2469.269 2483.075 2501.484 2517.819 2532.177 2534.092 2545.854 2561.436 2572.346 2571.884 2571.738 2572.265 2574.685 2578.705 2571.42 2549.636 2554.618 2569.14 2576.086 2581.851 2586.983 2591.924 2596.901 2602.195 2608.211 2617.354 2624.071 2626.429 2629.044 2631.163 2623.667 2605.147 2583.832 2565.532 2550.403 2538.181 2527.746 2518.34 2507.323 2494.944 2482.242 2471.074 2458.656 2446.584 2436.437 2428.769 2421.748 2413.626 2404.985 2396.531 2389.403 2384.308 2379.003 2376.257 2373.021 2369.107 2363.035 2355.115 2348.076 2341.399 2334.354 2328.74 2322.608 2316.423 2310.681 2305.56 2302.041 2296.293 2292.367 2287.315 2281.317 2275.299 2269.842 2266.569 2261.496 2259.131 2259.861 2262.276 2261.997 2259.522 2253.885 2249.015 2253.374 2259.247 2261.35 2258.202 2250.339 2247.781 2248.567 2248.001 2240.651 2228.272 2219.656 2213.841 2214.113 2221.314 2226.716 2228.236 2226.319 2221.293 2209.594 2200.628 2192.607 2181.484 2175.201 2168.562 2177.545 2193.29 2200.782 2196.283 2187.041 2174.795 2164.122 2152.013 2137.796 2123.218 2113.604 2105.018 2098.572 2096.718 2096.559 2097.077 2096.854 2095.726 2095.504 2093.793 2092.194 2092.194 2092.194 2092.194 2092.194 2092.194 2092.194 2092.194 2092.194 2092.194 2092.194 2092.194 2092.194 2092.194 2092.194 2092.194 2092.194 2092.194 2092.232 2092.289 2092.236 2092.194 2092.375 2092.393 2092.475 2093.09 2094.46 2093.95 2094.105 2097.764 2103.468 2110.007 2117.272 2123.787 2128.907 2134.355 2138.838 2141.602 2144.491 2144.467 2146.2 2151.524 2157.71 2163.155 2169.318 2176.424 2185.18 2191.625 2199.216 2207.2 2214.959 2219.865 2221.614 2222.299 2222.912 2223.679 2221.713 2218.594 2217.838 2217.896 2218.995 2221.784 2224.676 2228.529 2233.097 2239.111 2245.717 2252.628 2260.551 2268.143 2273.471 2276.935 2275.296 2273.113 2272.117 2272.012 2275.252 2280.847 2284.385 2289.338 2295 2303.529 2312.951 2325.564 2338.465 2350.199 2358.588 2362.281 2359.647 2352.583 2346.436 2344.49 2348.354 2354.571 2353.956 2350.111 2345.125 2339.507 2335.379 2331.937 2328.972 2327.331 2323.949 2319.659 2316.525 2316.893 2323.857 2332.008 2340.543 2347.406 2353.68 2361.053 2368.565
2522.381 2517.471 2512.609 2510.7 2506.518 2505.728 2505.688 2504.903 2502.452 2500.857 2500.105 2497.964 2493.245 2487.017 2479.005 2470.875 2463.261 2458.445 2454.876 2452.062 2446.412 2440.612 2434.517 2427.151 2420.435 2413.575 2410.537 2408.28 2408.024 2408.658 2409.485 2410.869 2411.702 2411.943 2409.594 2405.492 2405.501 2410.58 2414.812 2417.605 2419.225 2418.316 2414.89 2409.989 2405.865 2401.384 2396.549 2391.588 2384.856 2378.294 2371.086 2367.294 2369.853 2372.327 2372.532 2372.415 2371.824 2370.283 2368.695 2366.186 2362.176 2358.474 2352.946 2345.015 2338.8 2332.132 2327.616 2322.719 2317.265 2313.822 2307.273 2300.727 2293.79 2290.132 2289.102 2289.78 2294.078 2299.927 2308.229 2319.204 2326.583 2334.877 2342.161 2345.175 2340.557 2330.614 2324.273 2327.992 2340.176 2357.882 2373.075 2386.928 2402.293 2427.486 2451.146 2468.694 2485.052 2488.399 2497.91 2510.18 2519.706 2523.064 2536.532 2550.613 2560.252 2556.392 2551.566 2549.469 2553.605 2560.108 2564.974 2558.602 2548.9 2557.744 2566.562 2575.036 2580.658 2584.29 2590.275 2597.728 2603.048 2613.158 2619.833 2622.75 2626.067 2628.453 2623.578 2608.253 2587.015 2566.877 2549.173 2534.737 2523.751 2515.177 2507.649 2497.621 2485.104 2474.997 2462.86 2450.959 2441.594 2433.62 2425.381 2417.273 2408.674 2400.39 2394.776 2390.777 2387.044 2383.706 2378.935 2371.93 2364.044 2356.074 2348.198 2340.461 2333.5 2328.032 2323.618 2319.479 2315.633 2311.053 2306.204 2300.924 2295.6 2291.106 2284.639 2278.705 2271.698 2267.311 2260.596 2255.875 2251.396 2250.42 2252.425 2252.808 2250.246 2244.985 2246.198 2251.668 2253.59 2250.404 2241.909 2237.897 2241.678 2245.249 2238.178 2225.95 2217.258 2210.631 2207.895 2213.193 2221.884 2220.145 2214.192 2212.591 2208.344 2198.822 2187.263 2176.663 2169.42 2161.056 2166.62 2181.642 2191.964 2196.159 2193.829 2184.383 2172.002 2157.507 2142.799 2129.213 2118.037 2106.858 2098.864 2095.043 2093.994 2094.792 2097.467 2098.207 2097.563 2093.505 2092.194 2092.194 2092.194 2092.194 2092.194 2092.194 2092.194 2092.194 2092.194 2092.194 2092.194 2092.194 2092.194 2092.194 2092.194 2092.194 2092.194 2092.274 2092.97 2093.867 2093.508 2092.738 2094.715 2095.178 2097.643 2101.888 2105.762 2103.182 2101.695 2106.844 2115.812 2123.45 2131.822 2139.476 2146.331 2150.443 2152.038 2152.898 2152.818 2149.855 2147.528 2150.694 2156.715 2161.91 2168.515 2175.745 2183.84 2190.236 2198.126 2208.055 2215.47 2217.193 2217.857 2219.368 2222.506 2221.75 2218.054 2214.763 2215.473 2216.47 2218.622 2221.793 2225.135 2228.554 2233.618 2241.708 2249.639 2257.722 2264.689 2272.656 2278.148 2281.731 2280.667 2278.497 2276.803 2275.846 2279.192 2284.436 2289.483 2291.853 2294.608 2301.749 2310.848 2323.877 2336.251 2346.785 2355.996 2363.795 2364.253 2358.102 2353.187 2351.968 2355.477 2361.377 2361.677 2358.189 2352.376 2347.096 2342.396 2337.012 2333.712 2331.815 2328.109 2323.635 2320.251 2318.553 2321.967 2329.032 2336.509 2343.308 2351.528 2358.711 2366.283
2521.905 2517.672 2514.06 2513.089 2513.484 2513.533 2513.57 2511.144 2507.8 2506.319 2505.445 2502.319 2496.545 2488.588 2480.398 2472.863 2466.067 2463.039 2458.329 2454.264 2449.313 2443.003 2437.085 2430.863 2427.261 2417.323 2413.277 2410.751 2412.399 2414.946 2416.438 2417.247 2417.242 2416.873 2414.186 2410.587 2410.982 2415.673 2420.397 2423.314 2424.005 2422.091 2418.19 2412.672 2407.032 2401.499 2395.16 2388.978 2382.704 2377.742 2373.804 2372.013 2374.867 2376.443 2376.494 2375.687 2373.553 2371.117 2369.09 2366.635 2362.668 2358.176 2351.861 2344.874 2338.331 2332.568 2327.442 2321.99 2317.312 2311.263 2305.379 2299.09 2292.191 2289.164 2288.907 2291.536 2297.332 2304.773 2311.842 2320.526 2327.066 2333.434 2340.653 2346.787 2350.262 2344.337 2335.656 2332.853 2340.156 2352.658 2367.176 2383.127 2397.031 2417.639 2444.167 2465.436 2480.225 2484.234 2483.924 2493.014 2503.871 2515.26 2527.265 2535.521 2540.626 2537.545 2530.774 2529.173 2533.944 2538.528 2545.518 2550.877 2547.013 2550.469 2559.162 2568.14 2572.621 2577.465 2586.127 2592.709 2597.775 2606.514 2612.969 2617.692 2623.156 2626.007 2623.084 2610.734 2591.037 2569.615 2550.701 2533.727 2522.371 2515.846 2510.294 2503.406 2494.762 2483.114 2471.49 2459.421 2448.272 2439.998 2431.028 2422.187 2413.667 2406.6 2401.479 2396.947 2392.898 2389.336 2382.821 2374.33 2365.092 2356.895 2348.039 2340.199 2335.125 2330.969 2328.328 2325.645 2321.988 2317.966 2312.638 2306.261 2298.328 2292.126 2285.305 2278.775 2272.915 2267.927 2262.356 2255.95 2248.968 2244.38 2244.848 2245.403 2244.097 2240.023 2240.205 2245.296 2246.847 2242.951 2234.609 2230.783 2236.902 2240.677 2235.24 2225.964 2217.001 2208.639 2204.209 2207.116 2218.376 2218.748 2205.596 2198.386 2195.54 2188.928 2179.156 2169.852 2161.558 2154.568 2159.865 2172.747 2181.082 2188.628 2193.584 2190.918 2180.052 2162.652 2147.328 2133.31 2120.501 2108.885 2098.357 2093.551 2092.56 2092.872 2094.782 2097.048 2094.604 2092.194 2092.194 2092.194 2092.194 2092.194 2092.194 2092.194 2092.194 2092.194 2092.194 2092.194 2092.194 2092.194 2092.194 2092.194 2092.194 2092.194 2092.194 2092.504 2094.73 2096.613 2097.012 2095.833 2097.414 2098.958 2105.084 2114.284 2120.255 2118.281 2115.924 2119.31 2126.606 2134.646 2143.283 2150.183 2156.749 2159.964 2161.136 2161.715 2161.799 2158.375 2152.786 2151.827 2155.357 2160.133 2165.65 2172.063 2180.284 2187.05 2195.373 2204.818 2209.312 2209.414 2212.056 2216.927 2220.26 2217.151 2213.246 2211.002 2212.971 2216.276 2219.204 2222.358 2225.73 2228.988 2234.221 2242.779 2250.831 2259.584 2269.078 2279.93 2286.213 2287.604 2286.149 2284.542 2281.363 2278.929 2280.597 2286.06 2293.956 2298.339 2298.528 2302.195 2308.686 2320.907 2331.127 2339.834 2347.759 2356.096 2360.872 2360.137 2360.788 2361.682 2364.306 2368.38 2370.52 2368.523 2361.786 2354.987 2348.595 2342.272 2338.264 2334.463 2330.749 2328.161 2325.602 2323.772 2323.791 2328.769 2336 2344.268 2352.613 2357.747 2365.658
2523.544 2520.938 2519.449 2519.669 2519.753 2519.779 2518.852 2516.048 2512.458 2511.197 2509.437 2504.829 2497.683 2489.184 2481.091 2474.735 2469.181 2464.479 2459.875 2453.118 2446.49 2440.28 2433.802 2428.112 2424.982 2419.209 2415.648 2414.844 2419.155 2422.355 2423.815 2424.037 2422.944 2421.643 2417.977 2414.553 2415.038 2420.28 2425.913 2429.159 2428.825 2425.852 2420.547 2413.879 2407.372 2401.221 2394.432 2389.716 2384.373 2378.672 2376.911 2377.389 2379.173 2380.001 2379.699 2377.543 2374.454 2371.7 2369.64 2366.606 2361.473 2355.908 2348.612 2342.016 2335.58 2330.234 2326.316 2322.133 2317.853 2312.553 2308.265 2301.786 2291.542 2287.672 2289.468 2295.023 2302.468 2310.761 2316.815 2321.082 2327.181 2331.329 2339.539 2347.459 2355.06 2355.908 2350.507 2346.839 2346.586 2355.989 2367.737 2377.815 2388.65 2402.366 2426.361 2447.325 2459.839 2465.546 2468.632 2478.687 2493.705 2509.032 2518.565 2519.298 2519.339 2520.974 2516.795 2513.527 2518.004 2528.932 2537.283 2540.761 2543.108 2547.123 2553.962 2560.478 2565.303 2573.419 2580.574 2585.389 2590.348 2598.277 2606.11 2613.001 2620.276 2624.076 2622.141 2610.784 2592.202 2570.767 2552.311 2536.475 2528.491 2523.153 2516.458 2508.671 2501.376 2490.678 2480.326 2469.68 2458.052 2447.87 2438.692 2429.934 2421.326 2413.572 2407.056 2400.993 2396.344 2391.433 2385.463 2377.292 2366.899 2357.866 2349.327 2342.739 2339.553 2336.817 2333.802 2330.962 2326.785 2321.323 2315.514 2307.323 2298.344 2291.731 2286.116 2280.785 2275.141 2269.674 2264.372 2258.098 2251.591 2244.833 2240.591 2237.22 2234.994 2233.101 2233.598 2236.792 2237.67 2233.214 2225.822 2223.301 2230.756 2233.677 2234.119 2229.659 2219.834 2209.481 2202.771 2201.377 2208.625 2213.854 2203.02 2189.2 2180.159 2175.732 2169.695 2160.861 2151.781 2148.067 2154.823 2165.131 2171.129 2177.195 2183.923 2188.01 2182.118 2164.972 2150.64 2137.211 2124.062 2111.41 2098.693 2092.556 2092.194 2092.194 2092.194 2094.101 2092.194 2092.194 2092.194 2092.194 2092.194 2092.194 2092.194 2092.194 2092.194 2092.194 2092.194 2092.194 2092.194 2092.194 2092.194 2092.194 2092.194 2092.194 2092.194 2093.023 2097.159 2099.58 2102.104 2101.878 2100.423 2104.112 2110.855 2120.482 2130.968 2131.728 2127.901 2127.707 2133.931 2142.275 2150.194 2156.823 2162.936 2166.464 2168.758 2170.855 2171.507 2168.081 2160.969 2156.404 2156.207 2159.447 2163.436 2168.397 2175.307 2182.97 2191.302 2198.59 2201.145 2202.504 2206.582 2211.671 2212.926 2210.504 2208.35 2208.426 2211.861 2217.362 2220.594 2223.302 2226.179 2229.705 2235.063 2243.018 2250.75 2259.058 2270.033 2282.408 2290.255 2293.166 2292.379 2290.917 2286.505 2283.147 2282.617 2286.985 2296.406 2303.474 2303.783 2302.828 2305.99 2316.324 2324.927 2332.491 2339.798 2348.34 2355.909 2361.63 2366.759 2370.497 2373.761 2376.571 2380.204 2379.731 2372.439 2363.604 2355.96 2348.219 2342.248 2337.986 2334.676 2332.28 2330.682 2329.6 2328.41 2329.336 2335.834 2345.208 2354.83 2358.356 2364.969
2527.391 2526.944 2527.583 2527.963 2527.295 2525.7 2523.761 2520.683 2517.883 2516.548 2513.651 2506.978 2498.102 2490.118 2482.575 2475.497 2469.37 2464.128 2459.532 2453.057 2445.558 2437.723 2430.399 2427.029 2425.098 2423.953 2421.322 2421.706 2427.436 2430.451 2431.336 2431.022 2429.423 2425.879 2420.205 2415.992 2417.498 2424.223 2430.307 2433.753 2434.296 2430.332 2423.846 2415.839 2408.901 2403.238 2397.664 2392.843 2387.473 2379.939 2380.215 2382.574 2382.939 2382.261 2380.231 2376.834 2373.932 2371.219 2368.327 2363.907 2358.185 2351.138 2343.413 2338.216 2332.908 2329.304 2326.695 2322.839 2317.139 2311.904 2307.172 2302.523 2292.925 2289.251 2290.862 2296.891 2304.908 2313.924 2320.606 2324.646 2328.825 2334.656 2342.199 2349.506 2357.675 2363.998 2364.407 2362.347 2359.741 2362.84 2372.51 2380.151 2385.062 2393.69 2412.616 2428.523 2439.268 2447.405 2456.604 2470.803 2487.277 2502.382 2510.622 2506.707 2502.136 2504.519 2507.19 2503.385 2507.891 2526.929 2535.481 2539.384 2545.262 2544.183 2548.819 2553.468 2560.23 2567.585 2573.533 2579.254 2586.432 2596.306 2604.07 2611.689 2617.733 2622.257 2621.111 2609.929 2593.237 2576.356 2560.837 2547.021 2538.125 2531.929 2524.141 2516.065 2509.434 2499.891 2489.087 2477.702 2466.607 2454.868 2445.148 2436.604 2427.878 2418.823 2411.102 2404.112 2398.1 2392.253 2385.742 2377.815 2367.7 2360.153 2353.906 2349.6 2344.651 2341.696 2336.002 2330.813 2327.111 2321.059 2313.77 2304.966 2299.52 2293.922 2287.623 2281.731 2276.456 2270.844 2265.073 2258.139 2251.952 2244.627 2239.716 2236.231 2233.87 2231.564 2229.415 2226.777 2224.92 2222.4 2218.178 2216.17 2221.161 2224.737 2230.443 2229.688 2221.222 2212.045 2203.278 2196.71 2198.486 2208.853 2201.9 2184.601 2172.048 2164.134 2158.678 2151.148 2145.17 2141.334 2145.563 2153.057 2158.836 2165.046 2170.211 2173.955 2171.707 2161.002 2150.56 2139.64 2126.995 2112.691 2100.045 2092.68 2092.194 2092.194 2092.194 2092.194 2092.194 2092.194 2092.194 2092.194 2092.194 2092.194 2092.194 2092.194 2092.194 2092.194 2092.194 2092.194 2092.194 2092.194 2092.194 2092.194 2092.194 2092.194 2092.605 2094.715 2098.909 2103.66 2109.216 2111.883 2111.058 2115.535 2121.084 2126.524 2136.485 2141.838 2138.744 2134.979 2139.252 2147.265 2155.435 2162.085 2167.787 2172.022 2176.01 2179.847 2180.505 2175.352 2167.661 2162.088 2159.605 2160.382 2162.322 2166.072 2170.666 2176.903 2184.472 2189.982 2192.021 2197.326 2201.662 2204.559 2204.519 2205.022 2205.676 2208.082 2212.3 2217.607 2221.513 2224.261 2227.097 2230.389 2236.081 2243.686 2250.596 2258.694 2269.096 2279.382 2289.542 2295.762 2296.849 2296.316 2292.276 2288.791 2287.082 2289.24 2296.814 2305.314 2307.519 2305.608 2307.341 2314.097 2321.112 2329.414 2336.744 2344.92 2355.003 2364.002 2369.674 2376.121 2380.985 2384.136 2388.788 2389.781 2382.921 2372.889 2363.504 2354.845 2347.156 2342.465 2339.199 2336.45 2335.062 2333.37 2331.278 2330.255 2333.922 2341.614 2349.795 2354.272 2359.771
