ncols         349
nrows         31
xllcorner     506600
yllcorner     4474929.89
cellsize      30
NODATA_value  -9999
200.4655 199.4368 199.913 200.4439 199.5668 196.9156 194.8596 194.7434 194.9796 194.9154 194.9597 194.6605 194.9741 194.9671 194.8071 194.2803 193.3698 193.3985 193.42 193.2973 193.016 192.8524 192.563 192.8489 192.3091 191.9861 191.91 191.91 191.91 191.91 191.91 191.91 191.91 191.91 191.91 191.91 191.91 191.91 191.91 191.91 191.91 191.91 191.91 191.91 191.91 191.91 191.91 191.91 191.91 191.7348 191.0848 190.8185 190.2899 189.8871 189.2159 188.3355 187.3177 186.8241 185.7224 184.5024 183.7259 183.5229 183.1835 182.1528 180.8023 176.8554 169.3066 162.9765 160.2304 159.0668 158.7772 157.9573 154.7735 153.981 153.91 153.91 154.397 156.2606 158.7084 158.3836 157.7614 157.0643 156.9799 156.9723 156.9453 157.1355 157.8026 157.91 157.91 158.0755 158.9316 160.5687 163.7079 166.6298 166.8906 165.5883 164.3484 163.9932 163.91 163.91 164.1055 164.9838 166.0137 167.2064 168.912 171.319 172.53 173.5811 173.8514 173.91 173.91 173.91 173.91 173.91 173.91 173.91 173.91 173.91 174.1344 174.6203 175.2625 175.1864 175.2215 175.3447 175.3956 175.4873 175.6985 176.4568 176.7029 176.8715 176.9731 177.3432 178.3373 178.3656 178.5067 178.6228 178.1718 177.9019 177.2722 177.078 177.1635 177.3811 177.6105 178.2403 178.5569 178.6513 178.7272 178.7618 178.8001 178.8464 178.9573 179.7037 179.8564 179.897 179.897 179.897 180.0328 180.4679 180.7329 181.6026 181.9479 182.7558 184.6964 185.3291 185.4873 185.6852 185.8887 186.2665 186.8665 187.6035 187.688 188.0501 188.9669 190.8353 192.395 192.6584 193.2862 193.4561 193.547 194.5636 195.8537 196.5834 196.4586 196.3329 196.5281 196.6297 196.9458 197.6102 198.007 199.6293 200.7298 201.0547 200.9743 201.0784 200.8658 199.9983 199.2902 199.156 198.7741 197.1959 194.6393 192.9174 194.4026 196.8399 198.1407 199.2728 198.5962 201.2614 201.4243 202.6261 203.6978 204.8241 205.6411 206.7315 207.569 207.8212 207.8948 207.8941 207.7067 207.0657 206.897 206.8959 206.8891 206.8979 206.9061 206.9054 206.8966 206.391 204.2144 203.4717 203.7675 204.9186 205.7523 205.638 205.5612 205.6386 205.6136 205.5555 205.5897 205.6551 205.591 205.562 205.5354 205.0399 205.5392 205.8059 204.9823 201.9697 198.1401 191.8526 184.9841 179.0109 175.3726 173.7234 173.6889 175.8609 181.5402 187.2135 186.1236 178.9056 178.5859 179.2189 179.0548 177.4125 175.0609 172.9487 171.3635 170.6271 169.9933 170.0554 170.3658 170.1572 169.6426 168.5298 167.0212 164.5727 164.8508 165.4091 166.2289 166.9965 167.6905 168.994 169.9982 170.9073 174.423 177.2774 180.5127 182.799 177.7573 169.1642 165.7224 166.1403 166.4032 166.7886 166.927 167.4839 167.8278 167.897 167.897 167.897 167.897 167.972 168.1503 167.9718 167.897 167.897 167.8846 167.6329 166.9533 166.897 166.897 166.897 166.9086 167.0455 167.4832 167.852 167.897 167.897 167.897 167.897 167.897 167.897 167.9128 167.9767 168.0617 168.4057 168.4379 168.555 174.01 178.8227 180.0147 178.4854 175.7922 174.0089 173.7537 174.4594 175.4224 177.5001 179.7832 183.587 185.1993 188.0675 191.6504 190.4586 184.3657 176.1488 172.4888 169.9389 169.2558
197.7899 195.5187 195.7198 196.4328 196.2559 194.9182 193.4713 192.9137 193.0203 193.4837 193.7761 193.651 193.7901 193.8287 193.832 193.349 192.3906 192.5917 192.9505 192.9618 192.9224 192.6836 192.1946 192.2841 192.0043 191.9261 191.91 191.91 191.91 191.91 191.91 191.91 191.91 191.91 191.91 191.91 191.91 191.91 191.91 191.7909 191.5815 191.8869 191.91 191.91 191.91 191.91 191.91 191.794 191.4314 191.2407 190.8566 190.3753 189.9801 189.7766 188.8647 187.8344 186.3813 186.1777 185.2042 183.963 182.9214 182.543 182.2745 181.2949 179.8291 174.7772 167.6514 162.2968 160.597 159.6111 158.7464 157.1887 154.4049 153.9239 153.91 153.91 154.2791 155.9267 158.8916 158.5462 157.478 156.869 156.3801 156.5125 156.849 157.0066 157.388 157.8524 157.9994 158.4883 158.7967 160.783 163.2711 165.5328 165.655 164.9164 163.9917 163.9237 163.91 163.91 164.1845 165.4591 166.5029 167.7398 169.6425 172.5332 173.3746 173.8422 173.8966 173.91 173.91 173.91 173.91 173.91 173.91 173.91 173.91 173.91 174.0285 174.1403 174.4643 174.5212 174.6985 175.2332 175.3404 175.43 175.649 176.4655 176.706 176.8735 176.9875 177.2782 178.0674 178.2814 178.559 178.567 178.2003 178.1627 177.8439 177.3953 177.337 177.5254 178.1001 178.4862 178.576 178.7849 179.2847 179.5047 179.5443 179.4982 179.6013 179.8793 179.8914 179.897 179.897 179.897 180.0951 180.8907 182.2766 181.883 182.0867 183.0672 185.7136 186.4904 186.5084 186.5964 186.672 186.8042 187.5701 188.5682 188.6256 188.6257 189.1065 191.0217 192.9301 194.0517 194.551 194.6451 194.8835 196.1289 197.3896 197.6975 198.0954 198.1488 197.6575 197.5926 197.7471 198.573 199.4601 199.9802 200.7409 200.9576 201.4944 200.8687 200.1581 199.0311 198.1674 197.4538 196.007 195.2937 193.9232 193.5364 197.2259 199.9269 200.7524 201.1223 201.2382 201.7704 202.469 203.6127 204.65 205.6412 206.5738 207.6494 207.8388 207.8924 207.897 207.897 207.8393 207.4928 206.9615 206.897 206.897 206.897 206.897 206.897 206.6348 205.3744 203.9655 205.1363 205.2812 205.6593 205.8484 205.8848 205.8815 205.8855 205.8848 205.8826 205.8846 205.8877 205.8856 205.885 205.8263 205.6486 205.2439 205.2535 205.3609 203.359 197.9899 190.7593 180.8206 176.7311 175.953 175.0475 178.2081 181.4199 187.3269 191.9557 186.5174 178.8053 182.961 186.6759 188.0132 185.7075 182.275 177.8943 175.1895 173.5207 172.0386 171.4437 171.4874 171.3918 170.7015 169.3874 167.3334 164.3678 164.7379 165.1034 165.8086 166.2533 166.8421 167.3868 168.2447 169.0173 170.1404 171.3236 173.8622 175.8075 170.8762 166.2459 164.9789 165.2899 165.888 166.3542 166.8759 167.707 167.8902 167.8906 167.8532 167.8509 167.8498 167.8449 167.8539 167.8887 167.897 167.8934 167.7458 167.2992 166.9214 166.897 166.897 166.9083 167.0502 167.4863 167.824 167.897 167.897 167.897 167.897 167.9084 167.9584 167.9657 168.0718 168.4838 168.563 168.9954 169.3601 169.9884 179.6589 185.7979 187.0777 186.1897 183.1194 180.1912 178.7017 178.9035 179.8494 182.7016 184.6136 188.8749 189.7771 189.2137 193.2655 196.4203 195.5793 191.6568 186.8132 181.6502 177.8102
196.8738 193.9946 193.0505 193.3313 193.2247 192.7997 192.418 192.1071 192.1023 192.3814 192.5566 192.5533 192.4606 192.5023 192.5959 192.3939 191.9588 192.2088 192.8 192.91 192.91 192.6581 192.0537 191.9471 191.9214 191.91 191.91 191.91 191.91 191.91 191.91 191.91 191.7911 191.4699 191.3403 191.4751 191.8559 191.91 191.91 191.6946 191.3215 191.8682 191.91 191.91 191.91 191.91 191.8019 191.3742 191.0286 190.8658 190.3541 190.0343 189.8599 189.3022 188.7285 187.6763 185.9123 185.2573 184.3696 183.3177 182.0796 180.6183 179.2718 178.6217 177.0194 172.055 166.276 161.263 160.3453 159.7176 158.6188 156.3232 154.2063 153.91 153.91 153.91 154.1779 155.3778 157.3226 157.881 156.7422 156.3037 156.0165 156.0921 156.452 156.9743 157.5638 157.8555 157.997 158.2897 159.1334 161.3356 163.161 164.999 165.0252 164.7187 163.9359 163.91 163.91 163.9998 164.7348 165.9698 167.3434 168.6445 170.5284 172.9834 173.7656 173.9082 173.91 173.91 173.91 173.91 173.91 173.91 173.91 173.91 173.91 173.91 174.0068 174.0051 174.0543 174.1179 174.3298 174.8306 175.2918 175.4395 175.593 176.1418 176.6563 176.8831 177.0905 177.5075 177.9969 178.0305 178.2431 178.4555 178.2204 178.2056 178.1674 178.0359 178.0868 178.1526 178.3759 178.5247 178.6193 179.3437 179.6335 179.7484 179.7822 179.7999 179.8442 179.9035 180.4499 180.0979 180.5229 180.7163 181.2907 181.6909 182.754 182.6566 182.7595 183.7258 185.9266 186.9225 187.5262 188.2138 188.4245 188.427 189.0898 189.6438 190.3488 190.3054 190.9706 191.781 193.6718 194.7417 195.5212 195.722 196.4576 197.5414 199.2895 199.5244 199.8776 199.5656 199.3808 198.2074 199.1771 200.2699 200.6264 200.6444 200.8398 200.9252 201.0586 200.7512 199.9322 198.8368 197.9561 197.6687 197.8504 197.162 195.2702 195.1095 198.652 201.4875 202.3295 202.6084 203.4373 203.3646 203.5413 203.9424 204.9041 205.9542 206.782 207.1563 207.847 207.897 207.897 207.897 207.8921 207.8031 207.6751 207.6717 207.582 207.4729 206.927 206.897 206.7595 206.3822 206.4278 207.0291 206.6284 206.6255 206.6663 206.5856 206.5783 206.6732 206.5348 205.9929 205.897 205.897 205.897 205.7754 205.2159 205.0947 204.8271 204.3855 204.1987 202.9133 198.3712 189.3787 178.5346 179.9638 181.1948 180.3973 184.9088 188.1469 192.9549 196.7735 189.8823 180.3903 184.5774 193.4173 196.0392 193.817 188.4518 184.5856 181.897 179.3105 175.7648 174.0348 172.6348 171.8069 170.964 169.7792 167.8328 164.3298 164.1934 164.881 165.17 165.2978 166.0433 166.3033 166.4084 166.1013 166.7119 166.7583 166.8526 166.6395 165.4736 164.9106 164.897 165.0551 165.8534 166.5653 166.8549 167.2944 167.7712 167.7773 167.2757 167.2581 167.2596 167.2146 167.3378 167.7634 167.8595 167.817 167.27 166.9621 166.897 166.897 166.897 167.0174 167.6319 167.8278 167.897 167.897 167.897 167.897 167.907 168.0459 168.456 168.5105 168.6125 168.9589 169.0499 169.4952 170.0266 171.5618 181.7149 187.8224 189.6027 189.8652 188.6656 187.27 186.4057 185.2612 184.9677 188.1379 188.7552 191.1621 193.2612 192.7135 193.0489 197.0756 200.3934 200.5259 199.4635 196.7488 193.1997
195.8607 193.2478 191.5662 191.625 191.6179 191.967 191.9674 191.9249 191.9266 191.9419 191.9953 191.9989 191.9548 191.9674 192.0041 191.9636 191.91 192.1527 192.7872 192.91 192.91 192.6573 192.0298 191.91 191.91 191.91 191.85 191.3484 191.4008 191.5357 191.8852 191.8266 191.3583 191.0508 190.9558 191.0576 191.3794 191.4001 191.2715 190.7993 190.7279 191.3269 191.3535 191.5326 191.8529 191.8653 191.3181 191.036 190.8546 190.2702 189.8957 189.499 189.3118 188.9006 188.2301 187.2433 185.8075 184.7153 183.4534 182.4026 181.0612 178.988 176.5528 174.1983 171.3189 168.6979 165.0542 160.8358 159.941 159.2478 158.0246 155.4443 154.0827 153.91 153.91 153.91 154.1531 155.1301 156.7203 156.6434 156.155 155.9658 155.9218 155.9316 156.1808 156.9983 157.7843 157.8957 157.9332 158.0818 159.419 161.8002 163.4424 163.871 164.2273 163.9556 163.9086 163.91 163.91 164.0832 165.026 166.1901 167.9064 169.5876 171.4283 172.8814 173.4585 173.8983 173.91 173.91 173.91 173.91 173.91 173.91 173.91 173.91 173.91 173.91 174.0034 173.9846 173.9835 174.0438 174.2143 174.5913 175.2399 175.4474 175.5489 175.902 176.6093 176.9047 177.1595 177.7437 177.9587 178.5404 178.6203 178.5616 178.2071 177.6006 178.1765 178.2898 178.3251 178.3709 178.4452 178.5598 179.3066 179.5893 179.7214 179.7914 180.5105 180.4745 180.5233 180.6527 181.4603 181.2722 181.5207 181.6516 181.9399 182.5533 183.5478 183.7078 184.1623 184.7172 186.6797 187.7161 188.5254 189.422 189.6825 190.1765 190.4995 191.3554 192.3864 192.741 193.1215 193.4588 193.9912 194.8053 195.2072 196.6953 197.7682 199.0417 199.8579 200.6248 200.6904 200.5844 200.5868 199.6451 200.4514 201.4638 201.645 201.4139 200.9878 200.9011 200.8039 200.2399 199.823 198.8711 198.6409 198.5679 198.6814 197.8535 196.9545 196.2259 198.1889 201.0752 202.3245 203.4362 203.8684 203.9824 204.4334 204.7252 205.7079 206.5364 206.8487 206.9924 207.8315 207.897 207.897 207.897 207.897 207.8889 207.8788 207.8794 207.8671 207.8045 207.6472 206.9442 206.8826 206.8497 206.8986 207.0276 206.9228 206.8764 206.8799 206.8705 206.8699 206.8806 206.8369 206.4855 205.9859 205.897 205.897 205.7092 204.9395 204.2724 204.7512 204.2589 201.5442 199.533 194.4583 184.0839 179.5553 184.6 184.0054 186.5531 191.9531 195.457 198.6338 199.8656 194.4713 183.8455 186.5079 196.2861 200.2446 198.5588 193.9323 193.118 188.4951 184.4457 180.3696 176.4511 174.2045 172.7411 172.4279 171.2325 169.5064 166.2067 164.2147 164.7531 164.9029 164.9618 165.0172 164.6821 164.4272 164.2156 164.4613 164.4915 164.1494 164.0417 164.5352 164.8437 164.8972 165.0577 165.941 166.7802 166.897 166.9653 167.1881 167.1253 166.9536 166.897 166.897 166.897 166.9534 167.1961 167.2334 167.177 166.9632 166.897 166.897 166.9006 166.9214 167.1247 167.8912 167.897 167.897 167.897 167.897 167.897 168.0175 168.5831 168.8322 168.9055 169.0437 169.5603 169.6004 169.847 170.8498 175.0576 183.8606 188.9533 190.614 190.9653 191.1642 191.3285 191.6329 190.1486 189.0284 191.7983 192.3011 192.5606 195.2225 196.6301 196.1801 196.7032 200.7383 202.4297 202.062 201.4771 200.775
193.6441 191.7825 190.5105 190.5464 190.6156 191.3707 191.4151 191.5372 191.8804 191.91 191.91 191.91 191.91 191.91 191.91 191.91 191.91 192.036 192.3761 192.3895 192.4528 192.6189 192.0294 191.91 191.91 191.8045 191.3937 190.9454 190.981 191.1067 191.3604 191.2974 191.0191 190.8494 190.3551 190.2859 190.0924 189.9783 189.7744 189.5677 189.7701 190.4322 190.8525 190.7717 191.3178 191.3103 190.9862 190.8163 190.3765 189.8655 189.3486 189.0604 188.9143 188.3254 187.7987 186.9174 185.8075 184.5617 182.9901 181.94 180.7118 178.8933 176.1281 173.0413 169.1583 166.1211 162.8102 159.6998 159.2279 158.3897 157.1736 155.0121 154.0149 153.91 153.91 153.91 154.1528 155.1228 156.8898 156.9679 156.3871 155.9538 155.91 156.0335 156.4629 157.0154 157.8342 157.91 157.91 158.0388 159.7204 162.7449 164.0472 162.5208 162.9323 163.1617 163.401 163.8796 163.91 164.0176 164.5408 166.2007 168.093 170.054 172.3145 172.9774 173.526 173.9009 173.91 173.91 173.91 173.91 173.91 173.91 173.91 173.91 173.91 173.91 173.9998 173.983 173.9889 174.0553 174.2103 174.5565 175.2317 175.4416 175.5362 175.7318 176.2505 176.8911 177.1981 177.7788 177.7837 178.3969 178.7682 178.5277 176.971 177.249 177.7188 178.2227 178.3323 178.3887 178.5614 179.1369 179.5448 179.6352 179.8122 180.4333 180.7773 180.9071 181.371 181.6145 181.8382 181.9281 182.4625 182.6208 182.7434 183.4801 184.5373 185.4263 186.1087 186.8819 188.3829 189.2595 189.5961 190.4319 190.7037 191.5283 192.163 193.2867 194.3133 194.3618 194.4878 194.6276 194.103 194.8694 195.6651 197.6781 198.8499 200.1849 200.6491 200.9684 201.324 200.9621 200.8514 200.2221 201.3158 201.8344 201.8833 201.6614 201.0454 200.897 200.857 200.5035 199.9468 199.6704 199.5902 199.6203 200.1592 199.3962 198.3054 197.2819 195.8919 198.9931 201.9777 203.6664 204.6503 204.1301 204.7195 204.9953 206.6114 206.8228 206.8903 206.9644 207.8411 207.897 207.897 207.897 207.897 207.897 207.897 207.897 207.897 207.8889 207.8221 206.9595 206.897 206.897 206.9015 206.9122 206.9036 206.897 206.9732 207.5219 207.4767 206.9264 206.8929 206.6675 206.0265 205.897 205.7598 205.2439 204.8248 203.6919 201.8255 201.5983 199.0175 192.1377 185.6556 181.668 188.5485 187.29 189.8493 195.3546 199.183 201.7043 202.9614 201.4253 196.0639 184.5976 186.5283 198.4707 201.5891 201.41 199.6433 199.053 193.621 188.0987 183.011 178.3192 175.231 174.4733 175.1267 173.9272 172.3817 169.537 165.0831 164.231 164.1967 164.1304 164.1272 163.9835 163.9174 163.9084 163.9169 163.9171 163.9874 164.6353 164.8271 164.8956 164.9712 165.598 166.0498 166.7783 166.897 166.898 166.9008 166.8995 166.8975 166.897 166.897 166.897 166.897 166.897 166.897 166.897 166.897 166.897 166.897 166.9828 167.4647 167.6398 167.8946 167.897 167.897 167.897 167.897 167.901 168.1116 168.8318 168.9002 169.0456 169.5405 169.8959 169.9021 170.2321 173.0513 180.8494 187.3312 190.3611 191.6471 192.254 192.668 193.3682 194.0716 192.5961 192.1284 194.5885 195.0211 194.7584 197.1154 199.2834 198.9146 196.8391 200.7919 202.8474 202.7258 202.0269 201.6191
191.2167 189.8974 189.476 189.5566 189.6354 190.4592 190.9514 191.0951 191.3877 191.4668 191.8793 191.91 191.91 191.91 191.91 191.91 191.91 191.9283 191.9846 191.9557 192.0126 192.2628 191.978 191.91 191.91 191.6977 191.0484 190.91 190.91 190.9364 190.9525 190.9346 190.8118 190.4166 189.9137 189.3661 189.1409 189.046 188.9594 188.9883 189.128 189.4985 190.2715 190.1722 190.4607 190.3946 190.4057 190.3405 189.9998 189.7838 189.0317 188.8376 188.3638 187.8801 187.2356 186.4461 185.7905 184.1342 182.8565 181.8801 180.7476 179.0802 176.1004 173.0313 168.834 164.6782 160.8787 158.3732 157.7362 157.046 156.23 154.4045 153.9604 153.91 153.91 153.91 154.2645 155.6381 158.1568 158.9969 157.8382 157.3267 155.91 156.1373 156.7332 157.012 157.8483 157.91 157.9793 158.6414 160.4872 162.5463 162.955 161.4857 162.2151 162.8355 163.0684 163.8547 164.0343 164.3886 164.7698 166.7033 168.6003 170.6891 173.1852 173.1573 173.7283 173.9081 173.91 173.91 173.91 173.91 173.91 173.91 173.91 173.91 173.91 173.91 173.9964 173.984 173.9965 174.0645 174.218 174.5652 175.2349 175.4296 175.5247 175.6355 175.8988 176.3907 177.1729 177.7333 177.773 178.3262 178.516 178.0248 176.3973 176.5222 177.1364 178.6093 179.0174 179.0493 179.1185 179.4574 179.5522 179.7617 180.2974 180.7334 180.8819 181.4515 181.8279 182.5773 182.5457 182.6657 183.4063 183.6496 184.1886 184.5397 185.526 186.7739 188.188 189.5674 191.0433 191.6938 191.2156 191.491 191.6866 192.4827 192.984 194.4907 195.5514 195.4603 195.509 195.6079 194.6892 195.1146 196.4886 198.678 199.723 200.6419 200.9031 201.6432 201.6103 201.037 200.8851 200.8521 201.6544 201.928 202.5709 201.7376 201.0522 200.897 200.8929 200.7941 200.6062 200.6463 200.5709 200.6562 201.3613 200.5647 199.2718 197.6768 195.2529 198.3004 201.3835 203.6241 204.8712 204.6908 204.9472 205.6439 206.8408 206.8902 206.897 206.9563 207.8491 207.897 207.897 207.897 207.897 207.897 207.897 207.897 207.897 207.897 207.8702 207.5581 206.9745 206.897 206.897 206.897 206.897 206.897 206.9212 207.1405 207.1311 206.9078 206.897 206.6877 206.0325 205.897 205.8404 205.5252 204.7642 201.8385 196.9495 194.6893 190.7037 184.5944 185.2263 191.6933 197.2182 192.265 196.2966 201.2995 203.8842 204.6413 203.6516 200.0125 192.9147 184.5289 185.4529 198.8499 202.5192 203.1842 203.0708 201.7892 195.9191 190.2609 184.2738 179.0877 177.2336 177.0737 177.3661 176.1907 174.744 172.2 170.1041 166.1432 164.809 164.6945 164.6577 164.578 164.6289 164.675 164.6004 164.57 164.6976 164.8452 164.8936 165.0027 165.7126 165.9468 166.5302 166.8582 166.897 166.897 166.897 166.897 166.897 166.897 166.897 166.897 166.897 166.897 166.897 166.897 166.897 166.897 166.897 166.9301 167.2982 167.7978 167.897 167.897 167.897 167.897 167.897 168.0294 168.5337 168.877 168.9899 169.5434 169.8459 169.8983 170.0274 171.7285 177.7978 185.6309 190.0149 191.9868 192.771 193.5814 194.3402 195.1886 195.4344 194.6767 195.7545 198.3071 198.5842 197.6231 199.2518 201.1694 200.5811 197.7943 200.998 202.3276 202.7472 202.5822 202.4389
189.6642 188.9483 188.9475 188.9967 189.0935 190.0204 190.8715 190.9344 190.9496 191.0792 191.844 191.91 191.91 191.91 191.91 191.91 191.91 191.91 191.91 191.91 191.9169 191.9519 191.9227 191.91 191.8126 191.3795 190.9661 190.91 190.91 190.91 190.8844 190.4045 190.3415 190.0269 189.861 188.9768 188.9246 188.8663 188.3866 188.4343 188.5794 188.983 189.3945 189.597 189.9309 189.9409 189.8575 189.6761 189.8292 189.309 188.8445 188.4149 187.9332 187.333 186.7866 186.0235 185.2695 183.7956 182.7019 181.439 180.2316 178.5338 175.2073 171.2633 167.3567 163.304 159.6258 156.7915 155.8293 155.2728 154.8372 153.9874 153.9211 153.91 153.91 153.91 154.2605 155.7683 159.4835 159.8435 158.7843 158.0674 156.9329 156.566 156.8402 156.9688 157.4304 157.8706 158.0476 159.0188 160.4543 161.4735 161.5244 161.5747 162.1127 162.8668 163.4951 163.874 164.1445 164.8723 166.1653 167.6691 169.4984 171.5459 173.6747 173.5816 173.8382 173.91 173.91 173.91 173.91 173.91 173.91 173.91 173.91 173.91 173.91 173.91 173.9936 173.9851 174.0045 174.0726 174.2187 174.5697 175.2328 175.417 175.512 175.604 175.7525 176.0682 177.1259 177.7477 177.8426 178.4767 178.1549 177.2323 176.3489 176.9559 177.8819 179.0407 179.3383 179.3853 179.4256 179.5188 179.5961 180.2945 180.6315 180.7799 181.4968 181.751 181.9568 182.8778 182.9804 183.4333 183.8508 184.6451 185.3997 185.5736 186.5132 188.5609 190.6316 191.8008 191.8922 192.0883 191.7693 191.3356 191.9645 192.9088 193.6075 194.8042 195.3682 196.3198 196.5412 197.3004 196.244 196.3434 197.4622 198.9592 200.0047 200.7377 200.924 201.8703 201.8022 201.5377 200.8953 201.182 202.367 203.1695 202.8647 202.3643 201.6748 201.6109 201.6002 201.5129 201.524 201.6303 201.5521 201.5484 201.7574 200.8167 199.5468 197.9275 196.5446 198.8765 201.2481 203.5806 204.8944 204.8816 205.0609 205.8354 206.8705 206.897 206.897 206.9218 207.1494 207.2574 207.2249 207.1692 207.8603 207.897 207.897 207.897 207.897 207.897 207.8931 207.8376 207.4711 206.9899 206.897 206.897 206.897 206.897 206.8993 206.9255 206.8293 206.173 206.1634 206.1647 205.9443 205.8537 205.2365 204.8162 202.633 198.0493 190.4267 188.5631 189.3873 185.1187 186.8948 198.798 197.885 196.9156 200.8716 204.207 206.1316 204.101 200.2527 197.4442 195.5203 189.7805 184.9222 198.8534 202.2484 203.5889 203.6998 201.6169 196.316 190.7556 184.0405 182.0977 180.9586 180.0602 179.2631 177.5331 176.4415 175.8093 174.6749 171.0542 167.52 166.4025 165.6724 165.5398 165.6005 165.6715 165.5859 165.4369 164.9445 164.9755 165.4852 165.6492 165.8816 166.0496 166.7164 166.8944 166.897 166.897 166.897 166.897 166.897 166.897 166.897 166.897 166.897 166.897 166.897 166.897 166.897 166.897 166.897 166.8983 167.1172 167.7503 167.897 167.897 167.897 167.897 167.9417 168.5704 168.834 168.9845 169.5977 169.8311 169.8963 169.9747 171.051 174.2474 179.5043 185.0896 190.6852 193.2633 194.4525 195.3602 196.2885 197.1048 197.2266 196.8862 199.0402 201.5344 201.3753 200.4346 201.3022 202.6356 202.8062 200.6001 200.7193 202.0746 202.7573 202.9023 202.845
189.046 188.9103 188.91 189.0003 189.373 189.9632 190.542 190.8657 190.91 191.0651 191.8366 191.91 191.91 191.91 191.91 191.91 191.91 191.91 191.91 191.91 191.91 191.91 191.91 191.91 191.7134 191.0701 190.9191 190.91 190.8087 190.5439 190.404 189.9415 189.9652 189.9227 189.8631 188.9452 188.91 188.8545 188.4335 188.3237 188.1526 188.4485 188.925 189.1082 189.4153 189.4073 189.3267 189.1706 189.3451 188.9217 188.6905 188.0012 187.3821 186.4505 186.2235 185.4459 184.35 183.2505 182.2382 181.0022 179.7416 177.7223 174.3519 169.5066 165.3782 161.6261 158.4795 155.3716 154.4523 154.1676 154.0015 153.922 153.91 153.91 153.91 153.91 154.1769 155.5961 159.866 159.3322 158.8048 158.0021 157.7811 157.2599 156.9465 156.9546 157.5294 157.8649 158.0629 159.0114 160.1243 160.9839 161.4704 161.9603 162.4816 163.006 163.8439 163.9919 164.5922 165.499 166.9538 168.3064 170.4319 172.3605 173.355 173.8362 173.8952 173.91 173.91 173.91 173.91 173.91 173.91 173.91 173.91 173.91 173.91 173.91 173.9912 173.9868 174.0103 174.0792 174.2201 174.5658 175.2271 175.4068 175.4954 175.5853 175.7215 175.9969 177.1033 177.8081 177.9531 178.4561 178.218 177.3891 176.4162 177.9957 178.8657 179.2684 179.3606 179.4492 179.6649 180.1049 180.2289 180.6074 180.7442 180.7929 181.7797 181.8174 181.9589 182.8828 183.073 183.733 183.9382 184.9641 185.9524 186.5431 187.4905 189.1763 191.1535 192.0299 191.9006 191.9096 191.8375 191.6235 192.0155 193.5755 194.445 195.5076 196.9641 197.332 197.5578 198.5661 197.5291 197.4759 197.877 198.9717 200.0353 200.7473 200.9244 201.8807 201.8849 201.7694 200.897 201.3703 203.1398 203.7888 203.5437 202.8236 202.5218 202.5766 202.5633 202.3459 201.952 201.8933 201.8711 201.8608 201.8244 200.8195 199.5682 198.1266 197.6862 200.4012 201.8367 203.6029 204.1823 204.9932 205.5171 205.8844 206.2251 206.8489 206.897 206.9008 206.9108 206.9417 206.9318 206.9201 207.3112 207.8057 207.897 207.897 207.897 207.897 207.897 207.8923 207.6738 207.0353 206.897 206.897 206.897 206.897 206.8259 206.1616 205.6404 205.1795 205.3013 205.7266 205.2498 204.4257 205.2932 203.6259 199.0351 191.1027 194.6186 195.4279 196.6568 197.0041 197.6064 200.6277 199.3621 199.4696 203.4053 205.4447 204.2849 202.178 201.0302 201.4558 200.1872 196.5331 193.5619 198.6863 201.6863 201.9022 201.5594 199.927 194.8082 189.2979 185.548 185.7926 185.002 183.6432 181.2524 179.2758 178.2024 177.6878 178.6213 175.7016 172.1194 168.423 166.7441 166.53 166.5181 165.8815 165.8714 165.8014 165.7281 166.4272 166.4956 166.5574 166.6662 166.5665 166.2727 166.1806 166.0901 166.3198 166.7939 166.897 166.897 166.897 166.897 166.897 166.897 166.897 166.897 166.897 166.897 166.897 166.897 166.9859 167.568 167.8457 167.897 167.897 167.897 167.897 167.9543 168.7481 168.8943 169.0342 169.781 169.8944 170.0037 171.2061 176.2144 180.1348 182.6164 187.4523 190.2338 192.6464 195.0252 197.224 198.4077 199.797 200.6915 199.5093 201.0165 203.7831 204.1416 203.5954 203.4628 204.3458 204.4061 202.8765 201.3366 202.6815 202.8379 203.0264 203.5076
188.9235 188.91 188.9984 189.3895 189.8097 189.9132 190.179 190.8069 190.9319 191.4489 191.8627 191.91 191.91 191.91 191.91 191.91 191.91 191.91 191.91 191.91 191.91 191.91 191.91 191.8983 191.3452 190.9799 190.91 190.91 190.6922 190.1165 189.9371 189.9127 189.8092 189.5995 189.8859 189.4829 189.6911 189.7335 189.3349 188.6411 187.9665 187.5679 188.4188 188.6093 188.9328 188.9306 188.8425 188.6712 188.8678 188.4186 188.2122 187.4351 186.4781 185.87 185.3352 184.5235 183.3832 182.2894 181.4242 180.4577 179.1723 176.7616 173.2621 168.003 163.3792 159.881 157.4363 154.8732 153.8778 153.5359 153.4781 153.9055 153.91 153.91 153.91 153.91 154.1528 155.5442 159.8472 158.8736 158.404 157.9605 157.901 157.7351 157.3351 156.9867 157.8555 157.8966 158.0565 159.0216 160.5663 161.3484 161.8662 162.5042 162.9358 163.4093 163.8921 164.0781 164.9908 165.8982 167.0418 168.8598 171.0687 173.1786 173.5221 173.8735 173.91 173.91 173.91 173.91 173.91 173.91 173.91 173.91 173.91 173.91 173.91 173.91 173.9896 173.9882 174.0144 174.0838 174.2205 174.5607 175.2208 175.3937 175.4752 175.5657 175.7715 176.4367 177.1363 177.839 177.9626 178.2267 178.0902 177.8606 177.5451 178.9004 179.2358 179.3625 179.3878 180.0502 180.2079 180.5018 180.5718 180.7102 180.9156 181.3551 181.7856 181.8461 182.0066 182.882 183.064 183.7048 183.9451 184.962 185.8844 186.3208 187.2083 189.0396 190.2768 191.0389 191.2446 191.2128 191.3307 191.8437 192.6884 194.5665 195.5161 196.5095 197.8543 197.8256 197.8913 198.2299 197.8864 197.9722 198.4653 198.4139 200.4983 200.9289 201.5273 201.8895 201.897 201.844 201.5718 201.4597 203.528 204.4251 203.8672 203.4048 202.944 202.8859 202.8816 202.7741 202.5683 202.5852 201.915 201.897 201.8335 200.7567 199.0988 198.2615 199.2401 201.6389 202.6377 203.7424 204.6173 205.064 205.7356 205.8972 205.9926 206.8197 206.897 206.897 206.897 206.897 206.897 206.899 206.9815 207.3356 207.8282 207.897 207.897 207.897 207.897 207.897 207.8154 207.5624 206.897 206.897 206.8027 206.2422 205.4103 204.9998 203.774 202.0677 203.1235 204.6792 203.4811 199.6276 203.5626 200.1971 191.872 194.0431 199.9377 202.2414 203.2962 203.5716 203.3854 203.0685 202.7473 200.7826 204.0905 205.0357 203.8893 203.3328 203.6906 204.2649 203.0794 200.8781 198.1437 196.0145 202.0007 201.2609 198.1864 195.1066 192.8269 190.8335 189.8232 191.0516 189.496 186.9509 183.2764 181.0928 179.6573 179.4888 180.3767 178.8279 176.8366 173.457 169.1164 167.6924 167.4798 166.6178 166.0884 166.5635 167.3452 167.5294 166.9355 166.8651 166.8785 166.7219 166.0784 165.9229 165.9102 165.9804 166.2849 166.8374 166.897 166.897 166.897 166.897 166.897 166.897 166.897 166.897 166.897 166.897 166.959 167.6455 167.8275 167.8929 167.897 167.897 167.897 167.897 167.9106 168.2739 168.7949 169.0221 169.8039 170.0337 171.2643 177.0694 183.5187 186.5089 186.8674 191.4803 192.9873 194.7941 197.1482 198.0397 200.4514 202.7214 204.0086 203.0127 203.536 205.8184 205.6947 205.3589 204.789 204.8649 204.7635 203.8218 203.1506 202.8939 202.8961 203.1049 203.7805
188.91 188.91 189.1109 189.7722 189.9004 189.9445 190.4496 190.8326 190.9654 191.901 191.8994 191.91 191.91 191.91 191.91 191.91 191.874 191.621 191.8722 191.91 191.91 191.91 191.8608 191.4559 190.9367 190.9244 190.91 190.8698 190.3686 189.9919 189.91 189.8412 189.4073 189.1338 189.4839 190.8463 191.0717 191.1603 190.6368 188.625 187.5783 186.9956 187.084 187.7776 188.3987 188.4493 188.3551 188.0857 187.9953 187.4518 187.2923 186.589 185.9447 185.2907 184.4924 183.9153 182.8809 181.6476 180.498 179.5313 178.2162 175.455 171.2654 166.1063 161.848 158.3562 156.1508 154.3978 153.7217 153.092 153.0455 153.901 153.91 153.91 153.91 153.91 154.2526 155.6891 158.4154 158.3462 158.1153 158.331 158.5256 159.3078 159.3283 158.8782 158.3128 157.9393 158.0488 159.0354 161.0207 161.7365 161.9911 162.9611 163.4491 163.8582 164.3812 164.5883 165.5098 166.3449 167.0923 169.6895 171.6592 173.651 173.8954 173.8993 173.91 173.91 173.91 173.91 173.91 173.91 173.91 173.91 173.91 173.91 173.91 173.91 173.9886 173.9888 174.0183 174.0858 174.2167 174.5579 175.2105 175.3737 175.4541 175.6581 176.1425 176.7707 177.0722 177.528 177.8089 178.2061 178.4021 178.482 178.7971 179.2477 179.3071 179.46 179.9775 180.4361 180.489 180.5661 180.6195 181.2618 181.4422 181.7385 181.7915 182.0236 182.4919 182.891 182.9588 183.2899 183.8256 184.9108 185.3289 185.8409 186.8056 188.3453 189.2066 189.9026 189.6697 190.3307 190.9011 191.7993 193.0344 194.9456 195.9987 197.4246 197.9048 197.9158 197.897 197.897 198.0143 198.5319 198.9274 199.9039 201.0103 201.5066 201.8697 201.9035 202.0813 202.4743 202.5458 201.5659 203.5289 204.1678 203.8961 203.8049 203.6003 203.5594 203.561 203.5499 203.5348 203.5596 202.4401 201.9705 201.8348 200.6746 198.5276 198.805 201.0575 202.1023 203.3679 203.911 204.8956 205.0899 205.7635 205.9187 206.6104 206.8566 206.897 206.897 206.897 206.897 206.897 206.897 206.9048 207.112 207.7919 207.897 207.897 207.897 207.897 207.897 207.8853 207.7849 206.897 206.775 206.2155 205.3239 204.7157 203.0171 202.3705 201.6529 200.1593 201.3532 200.2767 198.046 199.0982 194.9975 194.0041 199.5201 203.0257 204.9678 205.5668 205.542 205.3488 205.1664 204.4212 201.67 204.2458 204.879 204.6436 204.5378 204.7328 204.8517 204.4282 202.4497 198.5874 196.0089 202.4332 202.5624 200.6874 197.7489 196.8274 196.6868 195.5217 196.0539 193.6198 190.0106 185.3131 183.6477 181.9837 181.427 181.5006 180.5027 179.8056 178.494 174.6282 171.1757 169.3458 166.8549 166.9618 168.1035 169.1855 168.5552 167.6864 167.4857 166.9176 166.7357 166.0532 165.897 165.897 166.0349 166.552 166.8737 166.897 166.897 166.897 166.897 166.897 166.897 166.897 166.897 167.0272 167.4584 167.6923 167.8511 167.8914 167.897 167.897 167.897 167.897 167.897 167.898 167.977 168.1737 168.2018 168.5068 170.2079 173.5057 183.7879 189.1691 190.6738 190.229 195.4538 196.6059 197.5437 199.9407 200.38 201.9247 204.2624 205.567 205.3459 205.4044 205.9721 205.9239 205.8165 205.4847 204.9432 204.7731 204.044 203.7993 203.6082 202.9626 203.1035 203.7814
188.91 188.91 189.1207 189.8181 189.91 189.9902 190.8539 190.8949 190.9684 191.9053 191.9029 191.91 191.91 191.9023 191.7764 191.5314 191.4482 191.1125 191.4434 191.4924 191.4914 191.4905 191.426 190.9194 190.9129 190.91 190.91 190.8206 189.9757 189.9254 189.91 189.7532 189.0202 188.9455 188.9686 191.4899 191.7707 191.8066 191.1419 187.8461 186.786 186.4786 186.1007 187.0795 187.5306 187.4743 187.1865 187.3264 186.6852 186.4727 186.4102 185.9806 185.4627 184.3248 183.6505 183.3893 182.4254 181.1552 179.9175 178.9481 177.2478 174.1831 169.4269 164.6011 160.4403 157.2408 155.1748 153.9024 153.3547 152.9784 153.0015 153.9034 153.91 153.91 153.91 153.91 154.3724 155.827 156.989 158.0171 158.3984 158.8732 160.0287 161.3137 161.6769 161.2411 159.9717 158.4486 158.4694 159.4824 160.9849 161.6026 162.381 163.4628 163.9381 164.3563 164.8758 165.4547 166.024 166.7983 167.5991 170.6571 172.2989 173.3765 173.91 173.91 173.91 173.91 173.91 173.91 173.91 173.91 173.91 173.91 173.91 173.91 173.91 173.91 173.9874 173.9896 174.022 174.0869 174.2098 174.5546 175.2003 175.3463 175.4286 175.7388 176.4375 176.7734 176.9638 177.094 177.3605 178.0424 178.4892 178.7794 179.2016 179.2908 179.3377 179.5409 180.4045 180.4649 180.532 180.6493 181.1746 181.6479 181.7429 181.7773 181.8722 182.589 183.2537 182.9131 182.9806 183.1386 183.3545 183.8325 185.1178 185.5015 185.7363 186.8943 188.039 188.5144 188.897 189.8977 190.4371 191.3174 193.0248 194.9414 196.023 197.7439 198.3983 197.9638 197.897 197.897 198.0797 198.9111 199.5513 200.9418 201.5709 201.8509 201.897 201.9882 202.5549 202.9286 203.5188 203.0419 203.7443 203.9078 203.9034 203.9705 203.9904 203.9126 203.9092 203.9709 203.9527 203.8927 202.7256 201.8919 201.1596 198.8715 198.4963 200.0551 201.7904 202.7449 203.7628 204.0177 204.897 205.0996 205.7727 205.929 206.8923 206.8897 206.897 206.897 206.897 206.897 206.897 206.897 206.897 207.0851 207.7863 207.897 207.897 207.897 207.897 207.897 207.897 207.8059 206.897 206.7103 205.9172 205.0049 204.1133 203.3332 203.2295 203.862 200.4065 197.3989 196.3787 194.3561 195.2674 196.7389 200.2433 203.8049 205.1759 206.2528 206.5955 206.571 206.3359 205.8153 204.1033 203.4108 204.6589 205.5165 205.6114 205.5054 205.4477 204.9354 205.296 202.4383 197.2014 200.5556 203.9944 204.0963 203.2504 201.8265 201.3182 201.2454 200.6065 199.6223 196.7276 192.0177 188.8023 186.5739 184.8206 184.053 182.5443 181.6109 181.3372 180.5294 178.7107 176.2855 174.0317 169.0688 168.0641 171.1074 170.6817 169.5592 168.5101 167.8229 166.927 166.8467 166.6104 166.6061 166.6809 166.6611 166.8132 166.8943 166.897 166.897 166.897 166.897 166.897 166.897 166.9625 167.6589 167.6595 167.8062 167.8815 167.893 167.897 167.897 167.897 167.897 167.897 167.897 167.897 167.9036 167.9238 167.9242 168.5331 173.2298 178.9131 187.5399 193.3952 194.1046 193.6734 197.3406 199.3018 200.5528 201.5999 202.4912 203.6003 205.2972 205.8734 205.8601 205.863 205.9041 205.9003 205.8923 205.8069 205.6248 204.8233 204.0477 203.892 203.7869 202.9952 202.972 203.1254
188.91 188.91 189.12 189.8183 189.91 189.9917 190.8778 190.91 190.947 191.5849 191.8814 191.91 191.91 191.8173 191.3632 190.9627 190.91 190.91 190.91 190.91 190.91 190.91 190.91 190.91 190.91 190.8924 190.8454 190.4574 189.9286 189.91 189.889 189.4098 188.9467 188.91 188.9292 190.2183 190.6394 190.6447 189.759 186.4481 185.719 185.539 186.0786 186.8692 186.9176 186.4896 186.1061 186.4292 185.9972 185.4972 185.566 185.3966 184.5367 183.3461 182.784 182.8072 181.8749 180.3199 179.345 178.1551 176.6209 172.7011 167.7003 163.1573 158.6561 156.3873 154.9591 153.8769 152.9518 152.9243 152.9982 153.9073 153.91 153.91 153.91 153.91 154.3967 155.8051 156.9548 158.0083 158.4854 159.0302 161.0141 161.9452 162.3049 162.2967 161.4824 159.7827 159.7362 160.3918 160.996 161.7343 163.1803 163.9591 164.4293 164.849 165.3685 165.9677 166.5308 167.3341 168.5207 171.219 172.6289 173.0169 173.91 173.91 173.91 173.91 173.91 173.91 173.91 173.91 173.91 173.91 173.91 173.91 173.91 173.91 173.9857 173.9902 174.0254 174.0877 174.205 174.5471 175.1913 175.3224 175.3871 175.7233 176.4577 176.7287 176.8892 176.9713 177.2836 177.6696 177.9662 178.4024 179.2348 179.3472 179.3718 179.5784 180.447 180.5085 180.6995 181.1145 181.5862 181.6934 181.8231 181.8306 182.3946 183.1199 183.8361 183.4954 184.1431 184.3334 183.9062 184.766 187.1525 186.9412 185.7313 186.5585 186.9044 187.2826 188.3275 189.4627 190.4806 191.474 193.0155 194.8769 195.8511 197.1948 198.1923 197.8232 197.8383 197.8966 198.1055 199.1771 200.3591 200.9722 201.8356 201.897 201.897 202.0352 202.7829 203.0076 203.8918 203.897 203.9225 203.9679 204.5023 204.548 204.5617 204.5049 204.0206 204.5054 204.4821 203.8929 202.692 201.5748 200.2493 197.9623 199.0954 200.7621 201.8719 203.5449 203.9711 204.4386 204.8956 204.9626 205.3316 205.8626 206.8947 206.897 206.897 206.9096 207.4369 206.9633 206.897 206.897 207.0235 207.5242 207.8585 207.897 207.897 207.897 207.897 207.897 207.897 207.8509 207.5552 206.6063 205.3797 204.3787 204.5638 204.4374 204.369 204.1476 199.5699 194.6084 193.4465 195.6247 195.3564 199.1858 203.0798 205.7061 206.9886 207.3813 207.5731 207.5509 207.2567 206.4816 203.9173 204.7935 205.9053 206.509 206.5896 206.3432 205.8112 204.9509 204.653 201.5635 199.2832 204.8043 205.2791 204.8349 204.5302 203.6681 203.9711 203.8723 203.3159 202.2959 198.1593 193.8753 192.7102 190.2039 188.2798 187.0279 185.6313 183.6729 182.6268 182.3257 181.1173 179.6903 178.3795 175.6963 172.5946 172.3992 173.4113 170.5086 168.8379 167.9044 166.93 166.8917 166.8631 166.869 166.8877 166.8757 166.8887 166.897 166.897 166.897 166.897 166.9238 167.5872 167.5397 167.6351 167.8676 167.8743 167.8893 167.897 167.897 167.897 167.897 167.897 167.897 167.897 167.897 167.897 167.897 167.998 168.9313 174.6562 180.5111 184.8249 189.7726 195.2624 196.5552 196.4608 198.5762 200.7085 202.1638 202.7122 203.6903 204.6668 205.6713 205.8967 205.897 205.897 205.897 205.897 205.897 205.7718 205.1406 204.8084 204.0435 203.897 203.8061 202.9909 202.9032 202.8352
188.91 188.91 189.1188 189.8174 189.91 189.9931 190.8762 190.91 190.9494 191.3656 191.8799 191.91 191.91 191.7004 191.0081 190.91 190.91 190.91 190.91 190.91 190.91 190.91 190.91 190.91 190.9023 190.7628 190.4692 189.91 189.91 189.91 189.8561 188.9126 188.8943 188.8215 188.5237 188.2263 188.3199 188.1308 187.8985 185.4278 184.9282 184.9434 186.0753 186.8486 186.7734 185.9147 185.8401 185.6832 185.7594 184.8738 184.556 184.3694 183.5593 182.75 182.0391 181.9544 181.4567 179.6368 178.2464 176.6989 175.6463 170.2781 165.2935 161.5626 157.5306 155.4801 154.5351 153.8784 152.9296 152.91 152.9894 153.9091 153.91 153.91 153.91 153.91 154.3974 155.7947 156.9502 157.9899 158.3561 158.6933 160.5963 161.5883 162.0174 162.4231 161.7173 160.942 161.09 160.9219 161.6227 162.8154 164.1291 164.4137 164.9347 165.3252 165.8835 166.4371 167.0421 167.9097 169.4563 171.6211 172.7963 173.3523 173.91 173.91 173.91 173.91 173.91 173.91 173.91 173.91 173.91 173.91 173.91 173.91 173.91 173.91 173.9841 173.9893 174.0287 174.0898 174.1998 174.5378 175.1794 175.3001 175.401 175.9925 176.4702 176.6779 176.8926 177.2668 177.5494 177.5246 177.6848 178.1422 179.2611 179.4146 179.4138 179.6186 180.5023 180.66 181.1312 181.5298 181.6008 181.838 182.2909 182.3819 182.969 184.2383 185.1207 185.5039 186.1975 186.7887 186.5825 188.1318 189.6604 189.7634 188.3759 188.4684 187.4648 186.8184 187.9015 189.0821 190.2655 191.6423 192.9458 194.2663 195.1386 196.2 196.791 197.1171 197.3482 197.9008 198.3572 200.0197 200.8654 201.4749 201.8209 201.8781 201.897 202.033 202.7805 203.0133 203.8902 203.897 204.0293 204.449 204.8954 204.897 204.897 204.89 204.5508 204.7898 204.7146 203.8824 202.0138 200.4978 199.0126 198.6361 200.3344 201.3352 201.9039 203.3389 203.8351 204.1866 204.295 204.8334 205.0595 205.8262 206.8924 206.897 206.897 206.9045 207.2987 207.3065 206.974 206.9061 207.5671 207.8442 207.897 207.897 207.897 207.966 208.4752 207.9045 207.897 207.8295 207.248 206.5432 205.1378 204.0999 204.8904 204.8551 204.7328 203.9082 199.3135 194.2381 196.8825 201.437 197.6469 199.7768 201.7545 204.8118 207.2737 208.1971 207.9223 207.8813 207.7567 207.3949 205.9471 206.3677 207.0881 206.935 206.89 206.6438 205.8975 204.9411 203.7207 201.4832 201.9622 205.8851 205.6641 205.0236 204.859 204.6242 204.779 204.7476 204.5697 202.3914 198.5769 197.2283 197.3435 194.3882 193.0726 191.4093 188.8748 187.026 185.5824 185.0291 183.8016 182.5624 181.7453 179.8828 176.4522 174.6322 173.3263 170.0102 168.2616 167.3502 166.9081 166.897 166.897 166.897 166.897 166.897 166.897 166.897 166.897 166.897 166.897 166.9291 167.8283 167.8522 167.8732 167.894 167.897 167.897 167.897 167.897 167.897 167.897 167.897 167.897 167.897 167.897 167.897 168.2945 170.5033 176.9021 184.4783 188.5417 190.6706 192.3887 195.4352 198.0544 199.0133 199.7533 202.3973 203.7769 203.7233 203.9762 204.9585 205.7435 205.897 205.897 205.897 205.897 205.897 205.897 205.7133 204.9861 204.8675 204.4915 203.9944 203.8226 202.8532 202.3169 202.1262
188.91 188.91 189.1167 189.815 189.91 189.9977 190.8731 190.91 190.9864 191.9018 191.91 191.91 191.91 191.7024 191.0101 190.91 190.91 190.91 190.91 190.91 190.91 190.91 190.91 190.906 190.8158 190.3826 189.9667 189.91 189.91 189.927 189.8848 188.9416 188.9102 188.504 187.887 186.9683 186.8641 186.4683 186.0748 184.8064 184.4538 184.5926 186.062 186.7988 186.7767 186.2631 185.7033 185.1179 185.2873 184.4411 183.5169 183.3041 182.889 182.3522 181.2273 180.4397 180.1332 179.3364 177.1704 175.5397 173.9295 167.5629 163.3643 160.5425 157.5392 155.4967 154.3981 153.8932 153.2191 152.9494 152.9855 153.91 153.91 153.91 153.91 153.91 154.4944 156.1386 157.329 158.1097 158.6352 158.5583 160.0718 161.4497 161.8807 161.9252 161.803 161.5902 162.092 161.7702 163.0446 164.1649 164.7982 164.956 165.4289 165.8579 166.3298 166.8978 167.2536 168.3424 170.0007 172.0539 172.9822 173.7974 173.91 173.91 173.91 173.91 173.91 173.91 173.91 173.91 173.91 173.91 173.91 173.91 173.91 173.91 173.9823 173.9872 174.031 174.0934 174.1631 174.4333 174.8946 175.2353 175.4331 176.3052 176.485 176.6108 176.9118 177.5193 177.528 177.5255 177.7028 178.1861 178.9481 179.4657 179.471 179.6772 180.5662 181.1244 181.5212 181.6528 181.6752 182.2984 182.8714 183.346 184.0719 186.0477 187.0763 187.5127 188.3302 189.4745 189.9036 191.035 191.9746 192.6006 191.7218 191.4993 190.3173 187.8504 187.9404 188.9207 189.4035 190.3519 192.3413 193.1103 194.1553 194.8312 195.4846 196.3905 197.0067 197.9558 199.3571 200.7893 201.3331 201.3599 201.4107 201.7473 201.8919 202.0307 202.778 203.0198 203.8885 203.897 204.0977 204.7778 204.9001 204.9589 204.9678 204.895 204.7958 204.3039 204.1073 203.3074 201.4588 199.8487 199.7033 200.1177 200.9962 201.3997 201.9086 202.933 203.3596 203.8025 203.8994 204.3742 204.9106 205.7853 206.8825 206.8835 206.897 206.897 206.951 207.1396 206.9475 206.9129 207.8505 207.897 207.897 207.897 207.897 207.9395 208.2513 207.9016 207.8727 207.7647 206.897 206.6547 205.6695 204.7016 204.8971 204.876 204.6308 203.8069 198.1655 195.6423 200.3638 204.4833 202.2131 203.2769 204.0212 203.5028 205.9853 207.7248 207.9122 207.897 207.8837 207.792 206.9094 207.5441 207.7361 207.5898 207.4919 206.7229 205.8386 204.317 203.8262 203.5814 204.5553 205.2224 205.1938 204.9658 204.912 205.4957 204.9319 204.8866 204.8601 202.4424 200.2548 200.4911 200.9021 198.916 197.6619 196.2073 193.238 191.4806 189.9839 189.375 188.0724 186.57 185.4644 183.5883 179.5427 175.3167 171.8159 169.7914 168.5073 167.6365 166.9229 166.897 166.897 166.897 166.897 166.897 166.897 166.897 166.897 166.897 166.897 166.925 167.8581 167.897 167.897 167.897 167.897 167.897 167.897 167.897 167.897 167.897 167.897 167.897 167.897 167.9482 168.8989 172.4603 176.4103 186.2327 190.7445 193.1923 193.9526 194.4979 197.3411 199.5468 201.5427 200.8398 203.517 204.5449 204.6446 204.7714 205.5178 205.8427 205.897 205.897 205.897 205.897 205.897 205.768 205.267 204.9206 204.8938 204.6657 203.9543 203.0676 202.1876 201.8642 201.2837
188.91 188.91 189.114 189.8116 189.91 190.0051 190.8681 190.91 190.9852 191.8905 191.9031 191.91 191.91 191.7043 191.012 190.91 190.91 190.91 190.91 190.91 190.91 190.91 190.8959 190.8747 190.4407 189.9637 189.91 189.91 189.91 190.0137 190.2494 189.9135 189.6528 188.4752 187.8812 186.7198 185.8956 185.4921 184.8653 184.2725 183.5818 183.7007 185.9809 186.4472 186.4785 186.5415 185.6858 184.8616 184.427 183.5004 182.8075 182.4952 182.4499 181.3815 180.233 179.3017 178.2168 178.5946 176.3019 174.2183 172.5026 165.7479 162.3738 159.9522 158.1105 156.7475 155.0291 153.91 153.6867 153.0124 153.0003 153.91 153.91 153.91 153.91 153.91 154.6418 156.6829 157.9124 158.1358 158.673 158.7548 160.7977 161.8441 161.8776 161.9136 161.9846 162.527 163.1909 163.3357 164.4278 164.8738 164.9393 165.0268 165.8847 166.1057 166.8685 166.9859 167.8183 169.2185 170.3858 172.1136 173.0701 173.8285 173.91 173.91 173.91 173.91 173.91 173.91 173.91 173.91 173.91 173.91 173.91 173.91 173.91 173.91 173.9803 173.9928 174.0308 174.0946 174.1222 174.2986 174.5114 175.1556 175.4035 176.3024 176.434 176.549 177.1907 177.4875 177.3259 177.2723 177.6049 178.1625 178.6184 179.4747 179.549 179.8238 180.6598 181.5345 181.7545 182.1004 182.1779 182.8455 183.5042 184.3737 185.5914 187.8096 189.1888 189.6301 191.351 192.7148 193.3469 194.0108 194.7546 194.9461 194.4321 194.2815 192.7431 189.2248 188.4308 188.9116 189.0614 189.6967 191.9075 193.172 194.0474 194.5277 195.581 196.7397 197.5758 198.5567 200.8209 200.9576 201.1681 200.8848 200.9861 201.4064 201.8587 202.0281 202.7743 203.0271 203.887 203.897 204.1009 204.7935 204.9521 205.4609 205.476 204.9439 204.3398 203.8479 203.3221 202.335 201.1499 200.4319 200.8945 201.4375 201.5178 201.7213 202.4173 202.9166 203.1792 203.7669 203.897 203.9717 204.4082 205.2361 206.3476 206.7633 206.8271 206.8927 206.897 206.897 206.897 206.9141 207.8153 207.8759 207.897 207.897 207.897 207.897 207.897 207.897 207.7877 207.3729 206.897 206.8285 206.4297 205.5986 204.9026 204.7392 203.8465 201.9986 196.0397 198.5995 201.3533 204.9052 205.4019 206.3497 206.9796 204.7453 205.0555 206.8528 207.8564 207.897 207.897 207.8748 207.5337 207.8834 207.897 207.897 207.7984 206.9007 206.4378 205.2649 205.2504 205.3796 205.2157 204.8964 204.8643 204.8338 204.9167 205.7821 204.9619 204.8258 204.2571 203.3377 202.3249 202.3643 201.881 201.3396 200.7219 200.3204 198.0348 196.0208 195.3225 195.5685 194.139 191.8611 190.0517 186.8046 181.4956 174.9351 170.6556 169.863 169.1883 168.0472 167.5923 166.911 166.897 166.897 166.897 166.897 166.897 166.897 166.897 166.897 166.897 166.9177 167.8667 167.897 167.897 167.897 167.897 167.897 167.897 167.897 167.897 167.897 167.897 167.897 168.0098 168.7041 172.2515 177.5645 179.9508 186.3036 189.7529 191.5762 192.8801 194.9185 198.0335 200.3947 203.4448 201.7402 203.374 204.6459 204.88 205.004 205.7539 205.89 205.897 205.897 205.7766 205.285 205.1298 205.1497 204.9832 204.8996 204.8078 204.0908 203.2375 202.1329 201.8225 201.2664 200.9616
188.91 188.91 189.1113 189.808 189.91 190.0128 190.8589 190.91 190.9573 191.643 191.8463 191.9019 191.91 191.7144 191.0452 190.916 190.91 190.91 190.91 190.91 190.91 190.8962 190.8024 190.5626 189.924 189.91 189.91 189.91 189.91 190.131 190.8679 191.5586 190.7939 189.0364 187.8739 186.7278 185.7635 184.9494 184.4908 183.4367 182.9905 183.1098 185.5826 185.7828 185.8048 185.8605 185.3175 184.3932 183.8176 182.8683 182.3724 181.8343 181.5027 180.4171 179.181 177.9916 176.567 176.892 175.1089 172.3269 170.2934 164.5959 161.7497 159.6116 158.4004 156.8648 155.0323 153.91 153.6886 153.0139 153.0063 153.91 153.91 153.91 153.91 153.91 154.6432 156.6869 157.9294 158.3206 158.3512 158.239 161.2712 161.675 161.583 161.9185 162.3895 163.1572 163.8714 164.298 164.9 165.0207 165.286 165.3495 166.0204 166.4049 166.8916 167.1668 168.767 170.2177 170.9835 172.5054 173.3811 173.8634 173.91 173.91 173.91 173.91 173.91 173.91 173.91 173.91 173.91 173.91 173.91 173.91 173.91 173.91 173.9797 174.0016 174.0279 174.0927 174.1169 174.2751 174.4412 175.1225 175.3604 176.2668 176.439 176.8676 177.5581 177.4355 177.2143 177.154 177.4282 177.9282 178.6375 179.2358 179.6805 180.2722 181.1247 181.7099 182.1857 182.705 183.1474 183.5517 184.5117 185.6255 187.5915 190.3789 192.1325 193.1102 195.3907 196.3497 196.8778 197.2491 196.6539 195.7463 195.1655 194.5001 192.0948 189.1122 188.9471 189.3457 189.4604 190.5475 192.4209 194.3519 195.0742 195.6122 197.0016 198.0413 198.6784 199.9717 201.5946 200.7772 199.9889 200.4825 201.015 201.4677 201.8754 202.052 202.7884 203.0367 203.8855 203.897 204.1032 204.8412 205.4258 206.0314 206.2431 205.4603 204.4428 203.9933 203.4135 201.8909 200.9629 201.0136 201.4221 201.889 202.0202 202.478 202.9308 203.4165 203.527 203.8247 203.897 203.9117 204.1422 204.8093 205.4208 206.2121 206.3627 206.8326 206.8902 206.897 206.897 206.9043 207.4023 207.7962 207.897 207.897 207.897 207.897 207.897 207.897 207.8273 207.5119 206.9043 206.9058 206.726 205.9582 204.9098 204.5599 202.823 199.3423 197.3855 202.332 203.0995 204.9403 206.625 207.4678 207.8562 207.4433 205.7206 206.3859 207.7929 207.9022 207.9738 207.9627 207.9039 207.9512 207.9695 207.9057 207.8057 207.0514 206.9458 206.5538 206.5501 206.3777 205.5687 204.2744 204.2431 204.3398 204.8352 205.2262 204.9216 204.7752 203.9448 203.7204 202.8504 202.2733 201.9113 202.1509 201.3548 201.5348 201.0171 199.9397 199.6352 199.1855 196.9051 193.5816 190.7516 187.0901 181.0323 173.3332 170.7114 170.5556 170.0433 168.646 167.2723 166.9085 166.897 166.9352 167.5798 167.523 167.6612 168.7476 168.7954 167.594 167.4411 166.9367 167.8714 167.897 167.897 167.897 167.897 167.897 167.897 167.897 167.897 167.897 167.897 167.897 167.9681 168.4358 171.7074 176.3651 178.5073 181.575 183.9276 185.4913 187.5263 189.81 193.493 197.2613 200.2318 201.2173 202.3175 203.0901 204.1092 205.6484 205.8479 205.897 205.8819 205.2139 205.1963 204.9677 204.9073 204.9214 204.9056 204.8669 204.1379 203.7704 202.8719 201.1794 201.1274 200.9782 200.9018
188.91 188.91 189.1089 189.805 189.91 190.0196 190.8532 190.91 190.91 191.0123 191.619 191.8641 191.91 191.7793 191.2747 190.9886 190.9219 190.9168 190.91 190.91 190.91 190.8085 190.4871 189.9131 189.91 189.91 189.91 189.91 189.91 190.1188 190.7406 190.3293 189.8382 188.874 187.8586 186.7223 185.7565 184.8987 183.8154 182.9983 183.0641 183.3299 184.6851 185.0474 185.0506 185.2212 184.1247 183.4901 183.3769 182.724 181.552 181.2948 180.8356 179.6846 178.1542 176.7477 175.2443 174.6948 173.0949 170.4951 167.5099 163.5668 161.4866 159.0196 157.721 156.2563 154.9477 153.9176 153.6942 153.0154 153.012 153.91 153.91 153.91 153.91 153.91 154.6428 156.6917 157.9532 158.6503 158.026 158.0527 159.45 160.7963 161.109 161.9211 162.9617 163.4493 164.0104 164.91 164.9188 165.1685 165.8225 165.9553 166.4303 166.8479 166.9423 167.5526 169.3324 170.7713 171.3442 173.0874 173.791 173.91 173.91 173.91 173.91 173.91 173.91 173.91 173.91 173.91 173.91 173.91 173.91 173.91 173.91 173.91 173.9809 174.0019 174.0261 174.0893 174.132 174.2655 174.4373 175.1091 175.3208 176.2391 176.5289 177.3326 177.4769 177.3785 177.2332 177.4035 177.3844 177.6523 178.6671 179.1783 179.8355 180.7232 181.7161 182.1636 182.7419 183.2856 184.2069 184.8638 185.8476 187.6263 190.7789 193.5257 195.1144 196.3882 197.9195 198.3432 198.3017 197.9418 196.458 194.5974 193.1817 191.5039 189.784 188.5435 189.1368 190.3533 190.5869 191.433 192.8934 194.8453 195.9336 196.8949 198.3116 198.9203 199.4841 200.8782 201.4971 200.3272 198.8407 200.454 201.3615 201.815 201.9539 202.4221 202.8479 203.047 203.8841 203.897 204.1055 204.8819 205.8833 206.4933 206.7425 205.9898 205.3177 204.5994 204.2126 202.3606 201.0242 201.0577 201.73 201.8921 202.1672 202.9218 203.4144 203.817 203.5768 203.8259 203.9072 204.04 204.4951 204.847 204.9714 205.8012 205.9507 206.3683 206.8661 206.897 206.897 206.897 207.0609 207.6835 207.8864 207.897 207.897 207.897 207.897 207.897 207.897 207.8429 207.4077 206.909 206.6654 205.9387 204.9188 204.489 202.4639 198.3666 200.4154 204.4271 204.8146 205.5051 207.0209 207.7587 207.916 208.2138 207.1044 206.7839 207.3156 207.9929 208.4696 208.5166 208.4764 208.5114 208.4418 208.0022 207.875 207.643 207.634 207.5153 207.4405 206.8642 205.9065 203.8915 203.8077 203.902 204.7486 204.895 204.875 204.715 203.9294 203.2201 202.5851 201.5163 201.2487 199.9476 198.344 197.3749 196.7356 195.3975 194.5357 193.5414 189.7406 186.863 185.1514 182.2487 176.0609 172.0095 171.5358 171.5659 171.441 170.3136 168.2954 166.986 167.1269 167.4971 167.8955 168.0029 168.8108 170.9577 172.8334 169.6835 168.0771 166.9475 167.8792 167.897 167.897 167.897 167.897 167.897 167.897 167.897 167.897 167.897 167.897 167.897 167.9095 168.048 168.9386 172.058 174.2526 176.4479 177.9343 180.147 181.9588 183.0127 186.1129 190.1807 193.422 196.6117 197.3713 198.3019 200.8793 204.6745 206.2303 205.9233 205.1813 204.8219 204.3899 204.278 204.897 204.897 204.797 204.2209 203.8331 203.1151 202.2169 200.9351 200.912 200.9055 200.897
188.91 188.91 189.1055 189.8002 189.91 190.0306 190.8442 190.91 190.91 190.9526 191.3791 191.8359 191.91 191.91 191.7645 191.3278 191.1508 190.9669 190.9178 190.91 190.91 190.6562 190.031 189.91 189.91 189.91 189.91 189.904 189.8796 189.9845 190.3823 188.9596 188.8973 188.6999 187.8172 186.5281 185.7317 184.9751 184.0957 183.3794 183.6181 184.1554 183.8813 183.5728 183.5024 183.5609 182.8339 182.3892 182.0854 181.8175 180.2271 180.0814 180.3649 178.9955 177.0744 176.1206 173.808 172.1296 170.5953 168.8317 165.1023 163.1225 161.2819 159.2867 157.9332 156.1622 155.0089 154.1818 153.7092 153.0177 153.0204 153.91 153.91 153.91 153.91 153.91 154.6283 156.6572 157.9327 158.4077 158.0683 158.3139 158.7009 160.2674 161.3054 161.9452 163.0647 163.9422 164.3329 164.91 164.9972 165.4084 165.8659 166.0356 166.8548 166.9248 166.995 168.1476 169.638 170.8936 171.9662 173.0938 173.7898 173.91 173.91 173.91 173.91 173.91 173.91 173.91 173.91 173.91 173.91 173.91 173.91 173.91 173.91 173.91 173.9824 174.0065 174.0236 174.082 174.1592 174.2544 174.4306 175.1212 175.5892 176.3133 176.7565 177.29 177.3777 177.324 177.218 177.2945 177.3706 177.7357 178.7571 179.4357 179.9901 180.8837 181.8719 182.709 183.3736 184.2345 185.2762 186.2881 187.4419 190.0169 193.2817 195.5241 196.8455 197.906 198.4013 198.6243 197.8381 196.8232 194.9336 192.644 190.8327 190.1223 189.8719 189.4512 190.122 191.9994 192.6449 192.2038 192.5251 194.7 195.9762 197.3854 198.3731 198.8386 199.3799 200.3252 200.5082 199.2929 198.0682 200.5858 201.4285 201.8496 202.0337 202.839 202.9217 203.1066 203.8836 203.9119 204.1667 204.9043 205.9003 206.8994 207.1884 206.4256 205.8164 205.0266 204.7001 203.2679 201.1875 201.0696 201.4087 201.9271 202.6503 203.3952 203.8641 203.8365 203.6083 203.8371 203.9338 204.466 204.8437 204.897 204.9688 205.7951 205.897 205.97 206.8488 206.897 206.897 206.897 206.9721 207.3683 207.8302 207.897 207.897 207.897 207.897 207.897 207.8729 207.7726 207.3549 206.7744 206.2789 205.8363 204.915 204.4056 202.5737 199.8641 202.9155 205.7021 206.1891 206.4669 207.1151 207.7766 207.897 207.9008 207.8806 207.6554 207.5156 208.5004 208.8542 208.897 208.897 208.897 208.8321 208.5382 208.4762 208.5954 208.6155 208.4903 208.3349 207.4387 206.4112 203.8701 202.8 202.8508 204.0968 204.883 204.7631 204.3194 203.893 202.8206 202.1839 201.4931 200.7961 197.6488 196.2617 193.5695 190.763 188.5242 186.5746 185.0137 181.8045 179.6011 178.3001 175.5468 173.2472 172.9286 172.9192 173.8317 173.8907 172.4275 170.2342 168.1617 167.8362 167.9138 167.8989 168.0255 168.644 170.424 172.7247 170.2385 167.7818 166.9215 167.8828 167.897 167.897 167.897 167.897 167.897 167.897 167.897 167.897 167.897 167.897 167.897 167.897 167.9185 167.9362 169.0417 170.4852 171.6642 173.4762 175.8193 177.0866 178.1907 180.1546 183.1611 185.3054 188.734 190.9078 192.9784 196.8826 201.7019 205.7433 205.8434 204.9229 204.1871 203.9976 203.9607 204.182 204.2544 204.1291 203.307 203.0732 202.2053 201.3883 200.9057 200.897 200.897 200.897
188.91 188.91 189.1028 189.7964 189.91 190.0384 190.8377 190.91 190.9197 191.0626 191.8213 191.91 191.91 191.91 191.91 191.91 191.8345 191.2 190.989 190.9128 190.91 190.6571 190.0317 189.91 189.91 189.8964 189.8744 189.8465 189.6102 189.5233 189.5566 188.9276 188.8154 188.4909 187.7792 186.0118 185.7604 185.3118 185.0975 184.6015 184.8058 185.0457 183.8542 183.079 182.8772 182.6418 182.4074 181.2973 180.2585 179.4504 178.2897 178.1505 178.7241 177.0375 175.2528 174.8576 173.7248 170.7772 167.9214 166.4153 163.497 162.2017 160.8283 159.861 158.6674 156.9033 155.355 154.5908 153.7005 153.027 153.0508 153.91 153.91 153.91 153.91 153.9147 154.5688 156.3777 157.6455 157.8986 158.1604 158.9968 160.3962 161.7874 161.8719 161.98 163.0563 164.0822 164.7928 164.915 165.1488 165.8128 165.9647 166.2878 166.8919 167.0427 167.3253 168.5626 170.2979 171.0274 171.972 173.0872 173.7881 173.91 173.91 173.91 173.91 173.91 173.91 173.91 173.91 173.91 173.91 173.91 173.91 173.91 173.91 173.91 173.9827 174.0093 174.0147 174.069 174.1427 174.2416 174.4199 175.146 176.1124 176.4404 177.1127 177.2537 177.3239 177.2341 177.1632 177.1111 177.4939 178.1959 178.9606 179.4913 180.5842 181.4665 182.3267 183.2741 184.2912 185.2638 186.3836 187.5454 189.0233 191.5946 194.5091 196.5661 197.5893 197.975 198.7583 198.6281 197.7227 196.2324 194.1324 191.6327 190.7676 193.3073 192.8713 191.4602 191.7907 194.3312 195.148 193.4377 191.9065 194.2504 195.6956 196.7865 197.7261 198.2577 198.6368 198.9491 198.6999 197.9739 197.8966 200.4924 201.3933 201.9411 202.3843 202.8793 203.0771 203.4259 203.889 203.9694 204.3836 204.9556 205.8866 206.9578 207.4874 206.8868 205.9048 205.111 204.7629 203.8095 202.0155 201.5648 201.2795 202.3636 203.4142 203.8295 203.897 203.9069 203.9559 203.9355 203.9907 204.8239 204.897 204.9144 204.9962 205.8064 205.897 205.9814 206.8394 206.897 206.897 206.897 206.897 207.0752 207.7395 207.8875 207.897 207.897 207.897 207.897 207.7743 207.3795 206.8649 206.3053 205.7803 205.3673 204.8322 203.798 202.1155 201.0971 203.6883 206.331 207.291 207.4153 207.5387 207.8456 207.897 207.9429 208.4144 208.4905 208.4486 208.8963 208.9772 208.9742 208.9213 208.9606 208.9725 208.955 209.4223 209.4944 209.5049 209.4145 208.7497 207.7863 206.8195 204.4108 202.7975 201.7359 202.6204 204.8141 204.662 204.0571 203.8639 202.7778 201.9721 201.3091 199.7546 198.3717 198.2662 196.3724 194.643 188.6497 183.243 179.1407 177.8639 176.4776 174.9996 172.9613 174.4624 177.2207 179.0715 179.4764 177.2651 174.6879 171.6274 169.4535 168.7941 168.5882 168.503 168.537 168.669 169.2279 170.5958 169.4646 167.3924 166.9117 167.8788 167.897 167.897 167.897 167.897 167.897 167.897 167.897 167.897 167.897 167.897 167.897 167.897 167.897 167.8988 168.0323 168.5065 169.2773 170.7606 172.2065 173.1074 174.2336 176.197 177.9301 179.13 181.3172 184.3969 188.0033 193.513 201.1209 205.0102 205.7061 204.9174 203.9345 203.7989 203.3949 203.9006 203.8129 203.2712 202.3189 201.4947 201.2959 200.9927 200.8923 200.3481 200.8291 200.897
188.91 188.91 189.099 189.7906 189.91 190.0515 190.827 190.91 190.977 191.2402 191.8545 191.91 191.91 191.91 191.91 191.91 191.91 191.7535 191.2559 190.9327 190.91 190.6587 190.0328 189.91 189.9036 189.7873 189.6027 189.5588 188.9539 188.91 188.91 188.91 188.6621 188.0344 187.7502 186.06 185.9569 185.9494 185.9318 185.9455 185.9437 185.7888 184.359 183.6318 183.1319 182.1454 181.7415 180.5498 178.9824 178.1747 176.6101 176.0718 175.9277 175.0527 173.2447 172.7943 172.9383 171.1143 167.309 164.3643 162.7112 161.4282 160.3788 159.5726 158.7553 157.4936 155.8481 153.9361 153.5704 153.1546 153.2921 153.91 153.91 153.91 153.91 153.9659 154.6801 155.955 156.9949 157.9343 158.3587 159.1315 160.9995 161.5591 161.66 162.0018 163.0627 164.1082 164.7991 164.9426 165.3528 165.866 166.05 166.91 167.0039 167.4439 168.271 169.465 170.8662 171.3423 171.9913 173.0819 173.7856 173.91 173.91 173.91 173.91 173.91 173.91 173.91 173.91 173.91 173.91 173.91 173.91 173.91 173.91 173.91 173.9826 174.0096 174.0134 174.0538 174.1076 174.2251 174.4024 175.1311 176.0899 176.3959 177.0304 177.177 177.2834 177.1328 177.0498 177.356 178.1293 179.1122 179.5866 180.5067 181.8391 182.5138 183.1452 184.2521 185.3858 186.4909 188.0487 189.5118 191.0099 193.099 195.4255 196.8525 197.5376 198.1411 198.8748 198.6518 197.876 196.1373 194.8041 192.5399 193.3749 196.6657 195.0595 192.8574 193.0087 196.5207 197.3998 195.3337 192.1798 193.7394 195.1476 196.0124 196.8891 197.3587 197.7796 197.7736 197.4547 197.6479 198.6682 201.041 201.768 202.0866 202.8362 203.0008 203.4623 203.8301 203.897 203.9753 204.4044 204.9726 205.8679 206.8611 207.2014 206.8761 206.244 205.3854 204.8258 203.9241 203.2766 202.5498 202.1652 202.9585 203.7986 203.897 203.9144 204.0018 204.2862 204.1294 204.3933 204.8616 204.897 204.9685 205.3675 205.8542 205.897 205.9987 206.8247 206.897 206.897 206.897 206.897 206.9807 207.3735 207.8294 207.879 207.897 207.897 207.887 207.6343 207.0085 206.8156 205.86 205.3435 204.8855 204.323 202.9572 202.2652 201.6052 202.5135 205.1935 206.9197 207.8423 207.8296 207.8773 207.9136 208.0011 208.8103 208.897 208.9076 209.0018 209.4191 209.4644 209.4141 209.4537 209.394 209.0632 209.8518 209.8593 209.7971 209.7621 208.3025 207.5749 206.7968 205.3386 203.4222 201.1494 200.5001 203.8048 204.529 204.0907 203.8572 202.8672 202.3818 201.6126 200.5288 200.7108 200.7801 199.9133 198.5276 190.2084 182.9408 176.6721 176.0221 176.8742 176.4642 174.328 180.5429 185.2556 187.4229 185.1644 179.9854 178.3602 173.3453 170.4981 169.7703 169.4849 168.9024 168.9066 168.897 168.8776 168.7143 168.2929 167.2121 166.9197 167.8739 167.897 167.897 167.897 167.897 167.897 167.897 167.897 167.897 167.897 167.897 167.897 167.897 167.897 167.897 167.897 167.9487 168.2625 169.2982 169.7767 170.4425 170.9653 171.8241 172.916 174.2746 175.8132 179.9163 184.5707 191.6144 199.967 203.0289 204.3038 204.2388 203.2743 203.2538 203.0137 203.2302 203.215 202.8359 201.9892 201.5027 200.9885 200.8423 200.2394 200.6279 200.7431 200.3483
188.91 188.9174 189.1125 189.7911 189.9198 190.0789 190.8255 190.91 191.0613 191.8365 191.91 191.91 191.91 191.91 191.91 191.91 191.91 191.91 191.6781 190.9753 190.9061 190.6383 190.0279 189.9016 189.8331 189.447 188.9756 188.91 188.91 188.91 188.91 188.91 188.6634 188.0354 187.7647 186.3331 186.2865 186.2463 186.17 186.2295 186.1823 185.9303 185.7641 184.7697 183.8288 182.8212 181.8015 180.6436 179.0348 176.8212 175.7425 174.5786 173.7105 173.3553 171.5529 170.546 169.9904 168.4388 166.2231 164.4763 162.411 160.6444 159.2889 158.5391 158.4318 157.3924 156.1492 154.593 153.7951 153.7834 153.8911 153.91 153.91 153.91 153.91 154.1122 155.4387 156.551 157.2285 158.0294 158.6948 159.4375 160.9765 161.2149 161.4951 162.2553 163.3119 164.3359 164.8517 165.0028 165.8611 166.009 166.2808 166.91 167.1657 168.0276 168.9934 170.0629 171.1175 171.909 172.2326 173.0961 173.7836 173.91 173.91 173.91 173.91 173.91 173.91 173.91 173.91 173.91 173.91 173.91 173.91 173.91 173.91 173.91 173.9826 174.0125 174.0217 174.0331 174.052 174.2124 174.4078 175.118 176.0663 176.2921 176.7095 176.8507 177.0027 177.0625 176.9983 177.999 179.0631 179.9129 180.5844 181.5596 182.9164 183.5574 184.0793 185.477 186.9922 188.363 190.6729 192.4616 193.8947 195.4194 196.3463 197.2973 198.1879 198.9914 199.6813 199.4628 198.8121 197.9336 196.5058 194.2657 195.838 197.1292 195.3159 193.1792 194.0846 197.6419 198.6259 196.6426 193.5316 194.0851 194.843 195.1153 195.909 196.7333 196.9698 197.3926 197.1637 198.0843 199.4262 201.0546 201.7582 202.0919 202.8995 203.3599 203.834 203.897 203.897 203.897 204.1157 204.9309 205.8451 206.6797 206.7862 206.7606 206.3499 205.4164 204.874 204.2509 203.7965 203.2388 203.3576 203.388 203.8501 203.897 203.9721 204.3783 204.7449 204.5529 204.8914 204.897 204.9242 205.0776 205.8323 205.897 205.897 205.9915 206.7705 206.8756 206.897 206.897 206.897 206.897 206.9403 207.4354 207.8201 207.897 207.8803 207.7877 207.3206 206.8675 206.404 205.7479 205.0521 204.7885 203.8887 203.3373 203.8968 203.4688 203.1299 204.2022 205.4133 207.0028 207.4248 207.8075 207.9681 208.3912 208.8573 208.9218 208.9844 209.4414 209.8454 209.897 209.897 209.897 209.7926 209.4063 209.4336 209.5734 209.1874 208.7817 207.3118 206.5773 206.0863 205.2871 203.3787 200.7217 198.7883 202.3633 204.0313 204.2326 203.8453 202.9322 202.7986 202.4044 201.897 201.7668 200.8147 198.9029 194.6797 187.9421 181.9137 176.7788 177.3283 180.801 180.7225 178.2113 190.5202 194.8479 194.8184 187.6217 183.6961 183.2763 177.0127 172.0677 170.716 170.0088 169.431 168.9886 168.9739 168.8643 167.924 167.8391 167.5094 166.9665 167.8744 167.897 167.897 167.897 167.897 167.897 167.897 167.897 167.897 167.897 167.897 167.897 167.897 167.897 167.897 167.897 167.9206 167.9444 168.3641 168.9175 169.187 169.2794 169.4329 170.3686 171.5334 173.4114 177.4709 182.4318 189.2609 196.0714 198.8124 200.4586 201.9628 202.86 202.7377 202.3456 202.2558 202.2581 202.1205 201.8768 201.2035 200.9225 200.8652 200.5708 200.762 200.1246 199.396
188.9191 188.9958 189.2889 189.8367 189.997 190.2901 190.8537 190.91 191.0772 191.8212 191.91 191.91 191.91 191.91 191.91 191.91 191.91 191.9024 191.6526 190.973 190.8716 190.4561 189.9846 189.8418 189.5297 188.9859 188.91 188.91 188.91 188.91 188.91 188.9062 188.6436 188.0308 187.8484 187.1969 187.0004 186.9369 186.91 186.91 186.674 185.9693 185.768 184.7796 183.8207 182.8524 181.998 180.8806 179.7472 177.4243 176.0814 174.6622 173.4582 172.7676 171.2719 170.0279 167.7884 165.7511 164.0757 163.3899 161.6858 159.8951 157.333 156.7156 156.7911 156.3566 156.1248 156.2605 155.5333 154.9584 154.0443 153.91 153.91 153.91 153.91 154.1749 155.945 157.5486 157.8919 157.9719 158.6906 160.2101 161.2728 161.8753 162.1685 163.0027 164.0203 164.8115 164.9893 165.2287 165.8779 166.1473 166.8164 166.9179 167.262 168.3365 169.3193 170.3303 171.4663 172.2748 172.936 173.1436 173.7888 173.91 173.91 173.91 173.91 173.91 173.91 173.91 173.91 173.91 173.91 173.91 173.91 173.91 173.91 173.91 173.984 174.0101 174.0184 174.0356 174.0746 174.2797 174.6031 175.1283 176.0384 176.1253 176.1724 176.2007 176.5929 177.1024 177.4218 178.5414 179.6847 180.5175 181.6085 182.5695 183.6467 184.6201 185.8154 187.405 189.4867 191.2932 193.744 195.3829 196.7273 198.1103 199.1044 199.5863 200.1425 200.2961 200.6311 200.3974 199.5943 198.6994 196.4178 194.799 196.9397 196.7361 194.7519 192.9962 195.203 198.0156 199.0749 197.7744 195.0085 195.2426 195.5726 195.6658 196.1367 196.8376 196.9391 197.0297 197.3462 198.2058 199.726 200.9782 201.6644 202.0794 202.9668 203.7781 203.897 203.897 203.897 203.897 204.0903 204.8544 205.7209 206.2298 206.3375 206.3631 205.8249 205.0484 204.7889 204.3914 203.8628 203.5959 203.8636 203.9563 203.9176 203.9246 204.0878 204.8065 204.897 204.897 204.897 204.9142 205.0846 205.4107 205.8617 205.897 205.897 205.9658 206.4924 206.8266 206.897 206.897 206.897 206.897 206.897 206.962 207.7651 207.897 207.8257 207.4048 206.9531 206.7605 205.9505 205.74 205.0294 204.7419 204.0459 204.7088 205.4212 205.4664 205.3484 204.7735 204.8637 206.4134 207.091 207.7675 208.0188 208.8268 208.897 209.0041 209.3952 209.8718 209.897 209.897 209.897 209.897 209.7726 209.3946 208.913 208.7042 208.0753 207.1892 206.0751 204.7265 204.0408 204.1325 202.656 199.7045 196.592 200.899 202.4753 203.4392 203.2387 202.7931 202.6501 202.2372 201.7582 201.2322 198.992 195.336 189.444 183.7498 179.6897 177.4081 181.4093 187.2604 184.5676 181.3796 196.5558 199.9114 198.3315 189.2799 188.4783 188.7577 182.7477 173.9738 171.8821 170.6383 169.9033 169.544 169.4388 168.973 168.4078 168.0137 167.87 167.4835 167.8873 167.897 167.897 167.897 167.897 167.897 167.897 167.897 167.897 167.897 167.897 167.897 167.9229 167.9523 167.909 167.961 168.084 168.4443 168.5273 168.8701 168.897 168.897 169.0632 169.9516 170.8154 172.4017 175.5202 179.8432 185.2238 189.9265 193.2926 197.4585 201.3647 202.2375 202.084 201.8766 201.89 201.6886 201.2613 201.2263 200.8911 200.8503 200.8794 200.8887 200.0993 199.287 198.8666
189.0285 189.2956 189.8536 189.91 190.1137 190.91 190.91 190.91 191.0963 191.8024 191.91 191.91 191.91 191.91 191.91 191.91 191.91 191.8316 191.4478 190.9518 190.7815 190.0387 189.9022 189.7363 189.0107 188.91 188.91 188.91 188.91 188.91 188.91 188.8705 188.4579 187.9864 187.91 187.7823 187.3591 187.1811 186.9266 186.9079 186.6504 185.9676 185.7724 184.7917 183.8113 182.9054 182.5727 181.2336 180.2677 179.4663 177.3017 176.0965 174.7779 173.2576 172.4856 171.3554 168.7088 166.4416 164.0772 162.8401 161.4987 158.4295 154.3395 153.607 153.6313 153.7113 154.1105 154.3544 154.705 155.426 154.142 153.91 153.91 153.91 153.91 154.0616 155.338 156.9996 157.683 158.0406 159.1544 160.7677 161.8449 161.9708 162.4576 163.247 164.0443 164.808 165.0922 165.91 165.91 166.1501 166.8165 166.9717 167.6056 169.0379 170.2889 171.2928 172.3564 172.9589 173.1937 173.3616 173.8349 173.91 173.91 173.91 173.91 173.91 173.91 173.91 173.91 173.91 173.91 173.91 173.91 173.91 173.91 173.91 173.9859 174.0098 174.0174 174.0531 174.1675 174.6133 175.0441 175.1884 176.0031 176.0914 176.1855 176.2594 177.1321 177.397 178.4382 179.3423 180.2438 181.3573 182.588 183.5881 184.6988 185.7796 187.4235 189.7952 192.1906 194.4748 196.6249 197.9271 199.0662 200.061 201.0425 200.9675 200.9505 200.2704 199.7957 199.2641 198.7431 197.8633 196.1227 196.2851 197.5848 196.4912 194.0625 192.9938 195.7748 198.1116 199.5094 198.8706 196.9106 196.5809 197.0305 197.0294 197.0506 197.3778 197.2354 197.366 197.5573 198.1042 199.3059 200.5876 201.3186 202.01 202.9804 203.7747 203.9816 204.0013 203.9826 203.9919 204.0782 204.5107 205.2836 205.4527 205.7407 205.8691 205.7259 205.0335 204.7089 203.9143 203.897 203.9223 204.0656 204.3007 204.0617 204.0979 204.4129 204.8512 204.897 204.897 204.9165 205.0424 205.4617 205.8418 205.897 205.897 205.897 205.9857 206.3729 206.8324 206.897 206.897 206.897 206.9235 206.9527 206.9747 207.7574 207.897 207.7931 207.0516 206.9178 206.8307 206.3111 205.8108 205.0556 204.6237 204.5247 205.9346 206.4872 206.4669 206.4041 206.0412 205.8291 206.957 207.4237 207.8344 208.0308 208.8142 208.897 209.0759 209.8318 209.897 209.897 209.897 209.897 209.897 209.6881 208.9877 208.7833 207.8853 207.046 205.447 203.9751 202.3285 201.0021 201.2377 199.9832 196.8281 193.1319 196.6777 198.653 199.6741 200.3979 201.2052 200.9814 200.4703 199.9862 198.1881 194.7949 190.4697 185.1997 180.9565 178.7672 179.0896 186.6528 193.554 187.4868 183.0385 197.5185 199.7815 198.4006 193.6722 193.5195 194.2702 188.9562 178.3116 174.0095 171.7097 170.4351 170.3604 169.9259 169.4459 168.8761 168.4188 168.0704 167.9309 167.9413 167.9978 167.9755 167.9151 167.9606 167.9994 167.9354 167.9027 167.897 167.9202 167.9224 167.9388 168.0964 168.4189 168.4484 168.4919 168.5777 168.8556 168.897 168.897 168.897 168.897 169.0609 169.8412 170.3245 171.4468 174.281 177.0119 180.6863 185.9081 193.0155 197.9715 201.2093 201.752 201.3152 201.1744 201.244 200.5223 200.495 200.3338 200.8026 200.3997 200.7272 200.8725 199.7141 198.8156 198.2941
189.4196 189.899 189.91 189.91 190.1189 190.91 190.91 190.91 191.0974 191.8017 191.91 191.91 191.91 191.91 191.91 191.91 191.91 191.6911 191.0584 190.906 190.7703 190.0386 189.8188 189.5409 188.9668 188.91 188.91 188.91 188.91 188.9028 188.8888 188.7621 188.0378 187.91 187.91 187.91 187.9177 187.8261 187.1303 186.8889 186.4587 185.9496 185.7736 184.7924 183.8107 182.8466 182.5329 181.7282 180.7879 179.5388 177.9137 176.6691 175.1525 174.2847 173.9924 172.9976 171.1763 167.7668 164.1561 162.8247 161.3492 157.8032 153.9032 152.9304 152.91 152.91 152.91 152.91 153.8234 156.0417 154.2621 153.91 153.91 153.91 153.91 154.059 155.0338 155.9748 156.9527 157.6761 158.4351 159.8519 161.176 161.9713 163.0052 163.9241 164.248 164.8603 165.1212 165.91 165.9167 166.1746 166.8199 167.0801 168.1277 169.446 171.0011 172.0647 173.0938 173.3654 173.91 173.91 173.91 173.91 173.91 173.91 173.91 173.91 173.91 173.91 173.91 173.91 173.91 173.91 173.91 173.91 173.91 173.91 173.9874 174.0125 174.0299 174.1556 174.41 175.1549 175.2038 175.3584 175.9751 176.1106 176.3398 176.5578 177.2361 177.8858 179.2253 180.2852 181.244 182.2673 183.2847 184.609 185.9135 187.1792 188.9823 191.5387 194.1997 196.4952 198.8635 199.8529 200.7822 201.3679 201.6179 200.8821 200.3757 199.7401 198.7817 198.3166 198.5052 198.1261 198.0782 198.9588 198.6906 196.9212 194.7247 193.444 195.2586 197.5925 200.2618 200.577 199.0016 198.8467 198.9639 198.547 198.479 198.433 198.1167 197.9958 197.6584 198.0239 198.6871 200.0823 200.9306 201.9395 202.9825 203.8144 204.3286 204.4232 204.3775 204.3998 204.3379 204.2089 204.7793 204.9888 205.3869 205.6994 205.4233 204.9645 204.7035 203.9156 203.897 204.0142 204.4196 204.8225 204.4655 204.515 204.8595 204.897 204.897 204.9214 205.0496 205.414 205.8282 205.897 205.897 205.897 205.9224 206.1124 206.7966 206.897 206.897 206.897 206.9141 207.0851 207.2751 207.0805 207.7721 207.897 207.8466 207.3694 207.0522 206.9143 206.7824 205.9315 205.4173 205.0273 205.5022 207.1052 207.4173 207.3814 207.3797 207.2401 206.6938 207.0011 207.7753 207.897 208.041 208.8033 208.897 209.0813 209.831 209.897 209.897 209.897 209.897 209.8796 209.5939 208.857 208.4204 207.6769 206.5865 204.4648 203.1906 201.5209 199.1822 196.9232 195.8838 193.6544 191.1118 191 192.9826 193.0891 193.4377 194.7958 195.1031 194.9549 194.0755 191.3791 188.0777 184.8741 181.9047 180.7235 180.6491 182.2529 192.9106 197.5587 191.0007 185.9103 198.0542 199.9941 199.6244 198.8347 198.141 198.1146 194.4983 184.5079 177.2569 173.0094 171.3774 170.777 170.053 169.8302 168.9633 168.8812 168.5574 168.4153 168.4271 168.4851 168.4646 168.4066 168.4527 168.4918 168.4041 167.9502 167.9842 168.0984 168.4407 168.497 168.6702 168.9155 168.9128 168.9103 168.897 168.897 168.897 168.897 168.897 168.897 169.058 169.7676 169.9929 171.0084 173.3236 174.8523 177.7188 185.5641 192.5939 197.2883 200.7404 201.1222 200.1948 199.8655 197.515 198.0327 198.7609 199.691 199.7383 199.844 200.1219 200.2823 199.1565 198.3878 197.9651
189.91 189.91 189.91 189.9125 190.1333 190.91 190.91 190.91 191.1092 191.7896 191.91 191.91 191.91 191.91 191.91 191.91 191.91 191.7655 191.265 190.8462 190.5669 189.9833 189.6743 188.9208 188.91 188.91 188.91 188.906 188.8962 188.7936 188.6008 188.5213 187.9876 187.91 187.91 187.9132 188.0233 188.2316 187.9429 186.8848 186.0666 185.9112 185.7768 184.8009 183.8045 182.76 182.0392 181.5688 180.5097 179.3319 177.8856 176.8052 175.7906 174.9754 174.4251 173.2978 170.1266 166.297 163.6184 162.6588 161.6175 158.3165 154.7819 153.0785 152.9435 152.9147 152.91 152.91 154.0714 156.8199 154.383 153.91 153.91 153.91 153.91 154.0517 154.9916 155.8511 156.6254 156.6474 156.8581 157.8669 159.2811 161.8768 163.0436 164.0379 164.8234 165.0026 165.3262 165.91 165.9747 166.3684 166.8504 167.0923 168.2747 169.9822 171.3122 172.3622 173.7094 173.91 173.91 173.91 173.91 173.91 173.91 173.91 173.91 173.91 173.91 173.91 173.91 173.91 173.91 173.91 173.91 173.91 173.91 173.91 173.9899 174.0143 174.0411 174.2788 175.0801 175.2445 175.5428 175.9229 175.9665 176.2583 176.9219 177.7638 177.9133 178.7879 179.8927 181.003 182.2233 183.355 184.3297 186.0773 187.7535 188.7434 190.0182 192.2056 195.0078 197.3717 199.8384 201.0108 201.7812 202.1593 201.8376 201.0748 200.7242 200.5093 199.7615 199.4948 200.1676 200.896 201.1057 201.2103 200.8812 199.2663 197.2936 194.7599 195.2354 197.3675 200.1592 201.5683 201.1198 201.1774 200.8858 199.8178 199.6119 199.6171 199.4655 198.9433 198.6696 198.5862 198.8535 200.1594 200.942 201.9425 202.9922 203.8561 204.7242 204.897 204.9168 204.9738 204.9011 204.6563 204.9294 204.9975 205.0717 205.2985 204.9569 204.897 204.7206 203.9842 203.9145 204.1069 204.7731 204.897 204.897 204.897 204.897 204.9079 204.9829 205.0873 205.4367 205.8361 205.897 205.897 205.897 205.897 206.0137 206.4205 206.8461 206.897 206.897 206.9175 207.042 207.4601 207.7991 207.5104 207.9395 207.9822 207.9041 207.8369 207.3827 206.9791 206.7826 206.1046 206.0085 206.0683 206.3765 207.3672 207.8036 207.897 207.897 207.8018 207.4023 207.0822 207.7832 207.897 208.0526 208.7904 208.897 209.0872 209.8304 209.897 209.897 209.8733 209.8211 209.7349 209.2083 208.4453 207.8976 207.3339 206.5146 204.9598 204.4547 202.028 198.6487 194.8155 193.9676 194.9641 194.5849 193.1536 193.0338 190.6016 187.1229 187.1251 187.4911 186.9896 186.0415 184.5052 182.755 181.3085 180.78 183.4347 185.9679 187.334 198.003 199.3958 193.7739 189.0353 199.1412 201.7072 201.8601 201.3567 200.712 200.2273 197.7966 188.6595 179.7768 174.2618 172.2979 170.932 170.1359 169.8734 169.4048 169.3573 169.0748 168.9509 168.9515 169 168.9829 168.9342 168.9722 169.0059 168.9344 168.4635 168.5502 168.7136 169.381 169.4762 169.5843 169.5209 169.3744 168.9947 168.917 168.897 168.897 168.897 168.897 168.897 169.0553 169.7653 169.9835 170.9244 172.0012 173.4843 175.8662 182.6395 188.7835 193.7762 199.1965 198.9887 195.1702 193.397 193.7677 195.1378 196.464 198.0064 198.4125 199.1134 199.2624 199.3282 198.8382 198.5418 198.4227
189.91 189.91 189.91 190.0099 190.3698 190.91 190.91 190.91 191.1189 191.7796 191.91 191.91 191.91 191.91 191.91 191.91 191.91 191.8309 191.4379 190.7524 190.037 189.8169 189.4496 188.9176 188.91 188.9081 188.9032 188.8179 188.6093 188.3679 187.9485 187.91 187.91 187.91 187.91 187.9709 188.3824 188.8457 188.5821 187.2157 186.3221 185.9283 185.7716 184.8061 183.7993 182.821 182.2494 181.5687 180.2111 178.9248 177.877 176.8045 175.7841 174.8536 173.6674 172.6579 169.5938 164.9161 162.7315 162.3454 163.093 161.3878 157.8566 154.4821 153.4981 153.072 152.9555 152.9413 154.0948 156.7657 154.3761 153.91 153.91 153.91 153.91 154.0112 154.6607 155.3037 155.974 156.5258 157.1789 158.2763 161.3746 162.3561 163.3812 164.2602 164.8549 165.1582 165.7882 165.91 166.1091 166.7761 166.91 167.1065 168.3545 170.3139 172.0011 172.9781 173.7823 173.91 173.91 173.91 173.91 173.91 173.91 173.91 173.91 173.91 173.91 173.91 173.91 173.91 173.91 173.91 173.91 173.91 173.91 173.91 173.9927 174.0202 174.1439 174.4796 175.0618 175.3844 175.9733 176.0836 176.1879 176.7941 178.1777 179.4778 179.594 179.7805 180.7153 181.9452 183.4451 184.7671 185.9366 188.0838 190.0968 190.5573 191.3453 192.2391 194.7301 197.4025 199.4628 200.9397 201.932 202.6588 202.4295 202.2107 202.5341 202.5501 202.1232 201.4461 201.6731 202.2901 202.4449 202.7839 202.7594 201.2531 198.2495 195.4402 195.0608 197.2325 199.7366 201.7879 202.9689 203.0632 202.8064 201.7043 201.244 201.0787 200.7083 200.4568 200.0354 199.8084 200.2358 200.7524 201.2066 202.0578 203.0749 203.8632 204.7209 204.9193 205.0747 205.3557 205.4998 205.4364 205.4012 205.4298 205.3421 205.0085 204.9148 204.897 204.8105 204.3233 204.0677 204.1882 204.7852 204.897 204.9167 204.9839 204.9963 205.0408 205.3555 205.5052 205.888 205.897 205.897 205.897 205.897 205.9178 206.1698 206.8301 206.897 206.897 206.897 206.9921 207.3909 207.8456 208.0699 208.317 208.4229 208.3422 208.0039 207.916 207.6882 207.048 206.8417 206.4538 206.436 206.4745 206.8536 207.1562 207.749 207.897 207.897 207.897 207.8175 207.4264 207.8401 207.9235 208.1292 208.7974 208.897 209.0663 209.7463 209.8074 209.7852 209.7113 209.4251 209.2993 208.6844 207.9739 207.7727 206.9131 206.1662 204.7851 203.4508 200.3339 197.2061 195.5518 196.8492 199.8415 200.8841 200.8688 199.68 195.5346 189.0305 187.9824 185.9079 183.6852 182.3625 181.8535 182.5505 182.6945 182.3046 190.5379 193.9178 194.877 200.284 200.3537 195.4245 191.5146 200.1703 202.5782 202.7618 201.9664 201.7895 201.2562 198.5094 190.0028 180.6698 175.8675 173.4209 171.5513 170.518 169.9545 169.897 169.8099 169.5219 169.4113 169.4389 169.5042 169.5146 169.4283 169.5091 169.5528 169.4304 169.3936 169.4688 169.607 169.9613 170.3769 170.468 170.3615 169.8694 169.3649 168.9912 168.897 168.897 168.897 168.897 168.897 169.0518 169.7609 169.9347 170.4337 171.2367 172.9806 174.9424 178.8683 184.8863 189.1465 191.6101 188.1492 186.7937 186.0025 189.1147 192.8076 194.6546 196.2114 197.4122 198.3054 198.8248 198.9171 198.9052 198.7707 198.3968
189.91 189.91 189.91 190.1525 190.7885 190.91 190.91 190.91 191.1262 191.7722 191.91 191.91 191.91 191.91 191.91 191.91 191.91 191.6955 191.0571 190.7027 190.0458 189.67 189.0444 188.9101 188.91 188.8054 188.5575 188.4285 187.991 187.9124 187.9102 187.91 187.91 187.91 187.91 188.0891 188.7647 188.8132 188.2776 187.2334 186.4489 185.8552 185.5437 184.751 183.7952 182.9147 182.7263 181.8004 180.7859 179.4876 177.9748 176.8034 175.773 174.8196 173.2643 171.5636 168.009 164.1708 163.661 164.1968 164.955 165.0149 163.5647 160.195 156.8864 154.9765 153.838 153.5515 154.7211 156.1396 154.2373 153.91 153.91 153.91 153.91 153.9596 154.5296 155.8094 157.4648 159.2156 160.0054 160.3231 162.1287 163.027 164.0167 164.8587 164.9124 165.1693 165.7904 165.9145 166.1174 166.7756 166.9156 167.2138 168.6804 170.7949 172.1376 173.1513 173.832 173.91 173.91 173.91 173.91 173.91 173.91 173.91 173.91 173.91 173.91 173.91 173.91 173.91 173.91 173.91 173.91 173.91 173.91 173.91 173.9947 174.0642 174.485 174.989 175.1246 175.5357 176.0932 176.409 177.0279 177.8745 179.5916 180.5369 180.6705 181.1944 182.4607 183.656 185.0235 186.4754 187.6877 190.5644 192.9962 193.1 193.3732 193.8213 194.9888 196.8008 199.1852 200.8075 202.3512 203.3196 203.426 203.6493 204.2775 204.3873 203.9987 203.1284 202.6216 202.6903 202.2235 202.0407 201.7863 199.9577 196.7536 195.6789 195.721 197.1028 199.0557 201.5042 203.8678 204.3325 204.3722 203.8861 203.2461 202.8601 202.1445 201.5499 201.3718 201.304 202.409 202.5055 202.2809 202.6744 203.4531 203.9318 204.7385 205.098 205.5983 205.9911 206.2662 206.0467 205.9867 205.9139 205.8022 205.3857 205.0669 204.9923 204.9929 204.9193 204.6017 204.6387 204.9381 204.9928 205.0806 205.371 205.4301 205.4761 205.8238 205.897 205.897 205.897 205.897 205.897 205.9015 206.0635 206.4605 206.8619 206.897 206.897 206.9204 207.1402 207.7769 208.0838 208.4714 208.9142 208.9982 208.9105 208.4421 208.0697 207.708 207.0485 206.897 206.897 206.897 206.897 206.9256 207.4244 207.8228 207.897 207.897 207.897 207.897 207.897 207.897 208.019 208.4283 208.8448 208.897 208.9817 209.3716 209.4055 209.3578 209.2958 208.8792 208.7467 208.3073 207.7849 207.4473 206.7312 205.7848 204.6781 202.6568 199.402 196.7943 198.1332 201.2869 202.3844 202.4998 202.4106 201.5677 199.4131 195.7567 195.1287 190.9986 186.9953 183.7664 183.5053 187.5965 189.5855 187.2175 197.2729 199.8721 200.4578 201.6663 200.9708 197.5144 194.2562 200.4135 202.5731 202.7451 202.0289 201.8851 200.2177 197.6962 188.7564 181.395 179.3967 176.1445 172.9778 171.1942 170.0798 169.9106 169.897 169.9223 170.0115 170.2932 170.1724 170.3688 170.373 170.4193 170.336 169.9531 169.903 170.0692 170.38 170.418 170.8671 170.897 170.7558 169.897 169.7272 169.1154 168.9068 168.897 168.897 168.897 168.9114 169.0848 169.7761 169.897 169.9771 171.1915 173.0091 174.9909 178.0946 181.8095 184.9207 184.5323 178.3648 183.3207 185.7027 187.7991 192.0255 193.9297 195.3747 196.5563 198.0543 198.9937 199.3932 198.9272 198.64 198.0228
189.91 189.91 189.91 190.157 190.8003 190.91 190.91 190.91 191.129 191.7694 191.91 191.91 191.91 191.91 191.91 191.91 191.8145 191.4385 190.989 190.6961 190.0518 189.6689 189.0402 188.91 188.91 188.6649 188.034 187.9276 187.9126 187.91 187.91 187.91 187.91 187.91 187.9967 188.3419 188.7184 188.2255 187.0229 186.3351 185.9851 185.7004 185.0544 184.6738 183.793 182.8303 182.4241 181.5063 180.7427 179.4805 177.9825 176.8026 175.7644 174.917 173.7102 171.0958 165.3551 163.8799 166.3049 168.0539 167.6989 167.0745 166.8701 166.448 163.9174 161.152 158.9295 157.3237 157.3718 154.905 153.9671 153.91 153.91 153.91 153.91 154.138 155.9366 158.5599 162.0063 162.2758 162.4371 162.0969 162.4543 163.2848 164.0735 164.8582 164.9551 165.3708 165.836 165.9877 166.3123 166.8302 167.0017 167.5619 169.1661 170.9719 172.479 173.7158 173.9071 173.91 173.91 173.91 173.91 173.91 173.91 173.91 173.91 173.91 173.91 173.91 173.91 173.91 173.91 173.91 173.91 173.91 173.91 173.91 174.0022 174.1858 174.9107 175.1611 175.42 176.0567 176.3121 177.0117 177.4588 178.7512 180.3089 181.3157 181.6776 182.5238 183.7338 185.183 186.7204 188.0473 189.9498 193.0147 195.9178 195.5474 195.4985 196.4311 196.9359 197.6278 200.4038 201.9373 203.3613 204.2737 204.3637 204.4789 204.8066 204.897 204.7562 203.8629 202.9126 201.9895 200.6988 199.4562 198.5441 197.4479 196.2679 197.2447 198.4483 198.7171 199.1401 200.9687 203.0472 204.4581 204.8838 204.8158 204.4913 203.9772 203.4063 202.4934 202.2266 202.9274 204.2399 204.2906 203.6994 203.5804 203.8616 203.9954 204.8375 205.5897 206.4296 206.5241 206.7223 206.5162 206.4366 205.9969 205.897 205.8185 205.5114 205.4552 205.4555 205.4427 205.4491 205.4607 205.4554 205.4453 205.5373 205.8211 205.897 205.897 205.897 205.897 205.897 205.897 205.897 205.9165 205.9984 206.4438 206.8237 206.897 206.897 206.897 207.0178 207.4847 207.9146 208.4673 209.0227 209.3313 209.4315 209.4429 209.2597 208.5864 207.8904 207.153 206.9959 206.983 206.9394 206.9845 207.0418 207.7542 207.897 207.897 207.897 207.897 207.897 207.897 207.897 208.0885 208.7139 208.8788 208.897 208.897 208.897 208.897 208.8733 208.8085 208.7301 208.3767 207.845 207.3708 206.9426 206.5177 205.4744 204.5863 203.0492 199.4344 197.964 201.6601 202.5548 203.3845 203.4892 203.2988 202.0191 200.9107 200.6813 199.8008 197.286 192.8567 185.5992 187.418 194.4283 197.1073 193.1724 199.0798 201.616 202.0196 202.3023 201.0486 198.1854 196.4921 200.6288 202.4767 202.6617 201.9868 201.2932 198.2254 193.4272 185.512 183.0779 185.2002 181.0985 175.6815 172.5925 170.6062 170.0372 170.0036 170.0905 170.4174 170.8586 170.7116 170.9378 170.9688 170.9737 170.7352 170.076 170.0007 170.4638 170.8293 170.897 170.897 170.897 170.7467 169.897 169.8114 169.4302 169.0068 168.9116 168.897 168.897 168.9592 169.4143 169.841 169.9196 170.0151 171.1221 172.9923 175.3264 177.9875 181.3111 185.7143 189.0872 185.0247 186.489 190.8029 191.6079 192.7666 194.5591 195.6276 197.0564 198.783 199.8875 200.2704 198.9066 198.2974 197.9069
189.91 189.91 189.91 190.157 190.8 190.91 190.91 190.91 191.1319 191.766 191.91 191.91 191.91 191.91 191.91 191.8074 191.3603 191.0187 190.8017 190.3781 189.9883 189.6695 189.0406 188.91 188.91 188.6595 188.0154 187.91 187.91 187.91 187.91 187.91 187.91 188.0201 188.4281 188.7347 188.3986 187.6497 186.3966 186.3336 185.9864 185.6926 184.9998 184.4073 183.7315 182.724 181.901 180.9693 180.3034 179.0695 177.5751 176.3721 175.4413 174.8598 173.1596 169.1397 163.2991 162.7218 164.4807 166.4627 167.7502 167.9036 168.2582 169.0608 168.5282 167.4786 166.2455 163.9368 159.5324 154.8008 153.9109 153.91 153.91 153.91 153.91 154.3113 156.9989 159.6578 162.8268 163.5629 163.6083 162.9395 163.3946 163.8323 164.1552 164.8577 165.049 165.7686 165.91 166.0937 166.7768 166.9109 167.1278 168.2235 169.4491 171.1718 172.9207 173.5393 173.8432 173.91 173.91 173.91 173.91 173.91 173.91 173.91 173.91 173.91 173.91 173.91 173.91 173.91 173.91 173.91 173.91 173.91 173.91 173.9161 174.0926 174.3901 175.0612 175.5149 176.0345 176.1967 176.6138 177.4603 178.4906 179.6727 180.7944 181.7048 182.5405 183.2336 185.2764 187.0403 188.4769 189.9588 191.6586 194.4777 197.3757 197.3704 197.4099 198.3957 199.5353 200.1689 202.2786 203.3536 204.2791 204.7153 204.8087 204.8598 204.9236 204.9421 204.7628 203.8735 202.8907 201.6432 200.2735 199.8224 199.325 198.1918 197.8719 199.6597 201.1615 201.0526 200.4984 200.8873 201.8235 203.8253 204.7443 204.8914 204.8619 204.5748 204.2961 203.5291 203.3615 204.0205 204.7786 204.8146 204.4707 204.0547 203.9694 204.0681 205.0007 206.0147 206.8709 206.897 206.897 206.897 206.8615 206.1185 205.9099 205.897 205.897 205.897 205.897 205.897 205.897 205.897 205.897 205.897 205.897 205.897 205.897 205.897 205.897 205.897 205.897 205.897 205.9159 206.0669 206.4051 206.8257 206.897 206.897 206.897 206.897 207.0891 207.8068 208.0347 208.8442 209.475 209.8335 209.897 209.897 209.8216 209.381 208.3613 207.5923 207.4361 207.3735 207.1758 207.38 207.4433 207.8275 207.897 207.897 207.897 207.897 207.897 207.897 207.897 207.9917 208.4017 208.7383 208.8785 208.874 208.8127 208.8065 208.701 208.429 208.3078 207.8821 207.5934 206.9976 206.8664 206.1597 205.0256 204.183 202.4263 199.7011 199.9117 203.0151 203.6042 204.2936 204.3379 203.9797 203.011 202.4107 201.7237 200.7058 200.3187 196.3563 186.6795 190.4433 197.8476 199.4684 197.3629 200.4812 202.1498 202.2997 201.9095 200.7654 198.4704 197.8863 200.6406 202.0965 202.3165 201.9296 201.1309 197.2489 188.5628 183.8431 187.3002 191.6904 186.2988 180.6174 176.0329 171.9597 170.643 170.5497 170.6196 171.0113 171.335 171.4421 171.4276 171.3741 171.3204 170.9042 170.4499 170.4151 170.8452 170.897 170.897 170.897 170.897 170.7368 169.897 169.897 169.8168 169.3927 168.9986 168.9707 168.9158 169.0041 169.8017 169.9231 170.0688 170.4573 171.0585 173.0296 175.6083 178.1896 182.9676 189.7221 196.6081 195.4282 191.5154 195.3162 195.2849 195.3389 196.3077 197.118 198.8623 200.0632 200.7679 200.7252 198.8283 197.8356 197.4375
189.91 189.91 189.91 190.0435 190.5048 190.91 190.91 190.91 191.0329 191.4335 191.8431 191.91 191.91 191.91 191.91 191.695 190.951 190.9176 190.6711 190.0138 189.917 189.6698 189.0409 188.91 188.91 188.6595 188.0159 187.91 187.91 187.91 187.91 187.91 188.0153 188.4184 188.8673 188.7375 187.971 187.2809 186.3288 186.0111 185.805 185.396 184.8705 183.9816 183.4012 182.7143 181.8808 180.8176 179.8121 178.5045 177.033 175.8375 174.903 174.3848 171.6502 166.3462 162.2732 161.2148 161.5808 163.2138 164.956 166.5655 167.8833 168.6143 168.482 167.3824 166.8535 164.8767 159.6066 154.5608 153.8702 153.91 153.91 153.91 153.91 154.3085 157.4074 161.1518 164.2649 164.3654 163.9805 163.8806 163.895 163.9078 164.1552 164.8568 165.0482 165.769 165.91 166.0979 166.7733 167.0141 167.3814 168.3566 169.9286 171.4915 172.8292 173.0538 173.7613 173.91 173.91 173.91 173.91 173.91 173.91 173.91 173.91 173.91 173.91 173.91 173.91 173.91 173.91 173.91 173.91 173.91 173.9114 174.0626 174.4387 175.0016 175.4967 176.0777 176.3183 176.6353 177.4958 178.3974 179.4811 180.7156 181.8789 182.7959 183.7841 184.88 187.1419 189.2293 190.512 191.7458 193.106 194.9868 197.7628 198.4697 198.7408 200.0513 201.6247 202.6548 203.5217 204.279 204.6741 204.8746 205.3442 205.431 205.4595 205.432 204.8685 204.0306 203.539 202.8292 201.4317 202.2369 201.988 200.9318 199.9463 201.3846 202.5493 202.4329 201.6108 201.0738 201.441 203.0674 204.2572 204.8527 204.9465 204.951 204.8641 204.5818 204.5186 204.596 204.8982 204.9611 204.8816 204.6133 204.5564 204.6534 205.5271 206.4215 206.8851 206.897 206.897 206.897 206.8816 206.4424 205.995 205.897 205.897 205.897 205.897 205.9086 205.9611 205.97 205.9723 205.976 205.9597 205.9097 205.897 205.897 205.897 205.897 205.897 205.897 206.0204 206.4683 206.8291 206.897 206.897 206.897 206.897 206.897 206.988 207.4344 207.9558 208.9207 209.7208 209.897 209.897 209.8775 209.7987 209.5735 208.4323 207.9499 207.897 207.8248 207.6175 207.8418 207.897 207.897 207.897 207.897 207.897 207.897 207.897 207.897 207.897 207.897 207.9797 208.34 208.7198 208.699 208.4178 208.39 208.2628 207.9648 207.8148 207.5303 207.2707 206.9489 206.8392 205.8636 204.9634 204.1907 202.7536 200.7423 201.6467 204.4434 204.4932 204.7344 204.7427 204.3881 203.7957 202.8811 201.9408 201.2808 199.8779 195.3775 186.828 191.254 198.5346 200.4616 200.2888 201.9159 202.7514 202.736 201.9041 200.6768 199.2095 198.8083 200.5535 201.6739 201.897 201.8428 200.6835 197.7986 191.2048 187.3134 193.6721 197.2539 192.5479 188.1864 182.2486 174.7288 172.2894 171.7055 171.5542 171.5177 171.9412 172.0085 172.0034 171.9814 171.8173 171.1793 170.9684 170.9211 170.9812 171.0082 170.9623 170.9161 170.897 170.7529 169.9518 169.9162 169.897 169.8394 169.3897 169.3292 169.0744 169.0736 169.8093 169.9928 170.4159 171.3968 172.1088 174.2772 176.6308 179.5611 184.9651 190.917 195.946 196.7156 195.4406 196.7587 198.0056 198.2952 198.2528 198.5801 199.9002 200.7658 200.897 200.6807 198.5086 197.4551 196.7916
189.91 189.91 189.91 189.9264 190.0786 190.506 190.8457 190.91 190.9247 191.0719 191.7713 191.91 191.91 191.91 191.91 191.6843 190.91 190.8083 190.3714 189.946 189.91 189.6699 189.0411 188.91 188.8321 188.386 187.9677 187.91 187.91 187.91 187.91 187.91 188.0247 188.3413 188.4396 188.2673 187.4726 186.7862 185.9534 185.9177 185.6697 184.9147 184.4654 183.7688 182.9613 182.2607 181.4312 180.3564 179.3239 178.0102 176.5448 175.3473 174.3109 173.1743 168.9392 164.3187 161.8565 161.6646 162.8676 164.2027 164.7019 164.4442 164.6031 164.4348 164.2898 163.4668 163.1655 162.1722 158.7668 154.1754 153.8169 153.91 153.91 153.91 153.91 154.3033 157.4133 161.2276 164.4489 164.3659 164.2437 163.9536 163.91 163.91 164.1576 164.8563 165.0461 165.7659 166.0128 166.4147 166.8328 167.1535 167.8958 168.6667 170.1217 171.8543 172.9545 173.329 173.8253 173.91 173.91 173.91 173.91 173.91 173.91 173.91 173.91 173.91 173.91 173.91 173.91 173.91 173.91 173.91 173.91 173.91 174.0169 174.4631 175.0668 175.411 176.0413 176.5243 177.0914 177.5958 178.491 179.4083 180.4884 181.7256 183.1813 184.626 185.7966 187.1292 188.9315 191.0889 192.3078 193.3125 194.8683 195.9084 198.0193 199.3973 200.3894 201.442 203.0733 204.1414 204.4177 204.6558 204.88 205.4353 205.7264 205.8356 205.866 205.8224 205.5168 204.7483 204.5807 204.2983 203.3687 203.6408 203.4514 202.6596 201.7352 202.5432 203.5363 203.4213 202.6422 202.2711 202.4609 203.0046 203.9899 204.983 205.517 205.5572 205.5525 205.4672 205.0258 205.0617 205.4586 205.5635 205.5339 205.5174 205.5283 205.5762 206.0634 206.7486 206.897 206.897 206.897 206.897 206.897 206.7215 206.1022 205.9018 205.897 205.9089 205.946 206.0479 206.4341 206.4975 206.5078 206.5271 206.4073 206.0374 205.9024 205.897 205.897 205.897 205.897 205.9077 206.158 206.7819 206.897 206.897 206.897 206.897 206.897 206.897 206.897 207.0806 207.8839 208.811 209.3879 209.897 209.897 209.7868 209.318 208.6963 207.671 207.7398 207.8281 207.8842 207.897 207.897 207.897 207.897 207.897 207.897 207.897 207.897 207.897 207.897 207.897 207.897 207.897 207.9207 208.2659 208.2426 207.9288 207.897 207.897 207.897 207.8222 207.4197 206.9959 206.897 206.8415 205.8703 205.0583 204.7194 203.7032 201.8956 203.2146 205.2261 204.8838 204.4418 204.4467 204.6729 203.7702 202.8511 202.0401 200.9072 197.4059 192.6732 187.2669 193.3995 199.493 201.4816 202.3846 202.8233 202.897 202.7265 201.9198 200.991 200.4958 200.1072 200.9508 201.7723 201.9829 201.9203 200.9557 200.0445 198.3674 192.9265 198.2051 200.6036 199.6419 196.5831 190.3193 180.5476 175.8983 174.0827 173.1539 172.5653 172.4949 172.5427 172.5282 172.4632 172.326 171.7206 171.4214 171.1413 171.372 171.4349 171.3169 171.0496 170.9814 170.8407 170.2996 170.0536 169.9806 169.9307 169.9593 169.8847 169.5209 169.4265 169.8525 169.9932 170.48 171.7211 173.7863 176.5844 179.2926 182.3534 188.9858 193.6487 195.4956 196.7849 196.8201 197.3439 198.5483 199.0966 199.3922 199.4502 199.9457 200.6753 200.7897 200.5982 198.4346 197.3539 196.3144
